# .PCD v0.7 - Point Cloud Data file format
VERSION 0.7
FIELDS x y z
SIZE 4 4 4
TYPE F F F
COUNT 1 1 1
WIDTH 1609
HEIGHT 1
VIEWPOINT 0 0 0 1 0 0 0
POINTS 1609
DATA ascii
184.76306 72.099876 45.263966
191.98987 72.756638 45.47683
192.91769 72.099854 45.264
193.2397 72.341385 45.990334
315.23853 72.091003 45.278858
323.392 72.099899 45.263924
331.54663 72.099884 45.263958
339.70074 72.102814 45.259033
347.85538 72.102837 45.258995
356.00995 72.102829 45.259003
364.16455 72.102821 45.25901
372.31915 72.102798 45.259048
380.47375 72.102798 45.259056
388.6283 72.102837 45.258987
396.78296 72.102814 45.259026
404.9375 72.102806 45.259033
413.09213 72.102837 45.258995
421.2468 72.102837 45.258987
429.40134 72.102852 45.258965
437.55597 72.102829 45.259003
445.71054 72.102821 45.25901
453.86517 72.102844 45.258972
458.54947 72.882088 45.59129
462.01974 72.102844 45.25898
464.62741 72.541946 45.983978
470.17432 72.102837 45.258987
478.32892 72.102829 45.259003
486.48352 72.102806 45.259033
494.63809 72.102844 45.258972
502.79272 72.102821 45.25901
-0.56853962 73.500793 45.621647
7.0018463 73.235588 45.440655
15.101807 73.235603 45.440643
23.201752 73.235588 45.440655
31.301682 73.235611 45.440639
39.401642 73.235573 45.440662
47.501541 73.235565 45.440666
55.601486 73.235542 45.440681
63.701462 73.23555 45.440674
71.801376 73.235542 45.440681
79.901337 73.235558 45.44067
88.001236 73.235542 45.440681
96.101227 73.23555 45.440674
104.20119 73.235573 45.440662
112.3011 73.235558 45.44067
120.40109 73.235573 45.440662
128.50099 73.235558 45.44067
136.60095 73.23558 45.440659
144.70091 73.235542 45.440681
152.80084 73.235573 45.440662
160.90079 73.23555 45.440674
169.00124 73.240448 45.437664
177.1011 73.240395 45.437698
185.20102 73.24044 45.437668
197.64954 73.811081 45.032574
302.34039 73.687584 45.498268
322.89972 73.235573 45.440662
330.99963 73.235558 45.44067
339.09958 73.235588 45.440651
343.8981 73.337906 45.598747
347.19952 73.23555 45.440674
355.29947 73.235588 45.440655
363.39948 73.235596 45.440647
371.49942 73.23555 45.440674
379.5993 73.235619 45.440632
387.69928 73.23558 45.440659
395.79926 73.23558 45.440655
401.72833 73.110069 45.597069
403.89917 73.235573 45.440662
411.99915 73.23558 45.440659
420.09906 73.235565 45.440666
428.19897 73.235603 45.440643
436.29895 73.235565 45.440666
444.39886 73.235596 45.440647
452.49878 73.235588 45.440651
456.92517 73.694069 45.984001
460.59875 73.235596 45.440647
468.69867 73.235588 45.440655
476.79868 73.235588 45.440651
484.89862 73.23555 45.440674
492.99854 73.235611 45.440639
501.09851 73.235626 45.440632
10.957367 74.728683 45.000916
19.20018 74.728683 45.000931
27.443054 74.728683 45.0009
35.685913 74.728683 45.000931
38.616795 74.571434 45.638496
43.928787 74.728683 45.000923
52.1716 74.728683 45.000923
60.41449 74.728683 45.000908
68.657333 74.728683 45.000938
76.900208 74.728683 45.0009
85.143036 74.728683 45.000923
93.385925 74.728683 45.0009
101.77454 74.525208 45.318619
109.87164 74.728683 45.000908
118.1145 74.728683 45.000874
126.35736 74.728683 45.000908
134.60022 74.728683 45.000874
142.84308 74.728683 45.000912
151.08591 74.728683 45.000931
159.32874 74.728683 45.00095
164.07062 74.072289 45.629974
167.57162 74.728683 45.000931
175.81445 74.728683 45.000954
184.05734 74.728683 45.000931
196.16975 74.520309 45.385544
324.18588 74.728683 45.00095
332.42874 74.728683 45.000916
340.67163 74.728683 45.000965
348.91449 74.728683 45.000931
357.15732 74.728683 45.00095
365.40018 74.728683 45.000916
373.64301 74.728683 45.000938
381.88586 74.728683 45.000904
390.12875 74.728683 45.00095
393.68692 74.781189 45.597542
398.37161 74.728683 45.000923
406.6145 74.728683 45.000969
414.85736 74.728683 45.000938
423.10013 74.728683 45.000923
431.34302 74.728683 45.000923
439.58588 74.728683 45.000946
447.82874 74.728683 45.000916
449.18433 74.854568 45.988899
450.71198 74.542221 45.59594
456.07159 74.728683 45.000961
464.31448 74.728683 45.000931
472.55737 74.728683 45.000977
480.80017 74.728683 45.000908
489.043 74.728683 45.000931
497.28592 74.728683 45.000931
155.15204 75.806931 45.630547
335.64673 75.028671 45.603462
499.07233 75.952042 45.590668
503.54947 75.674026 45.971481
29.218693 76.339653 45.639118
92.765533 76.073029 45.636982
327.35626 76.723351 45.604038
385.60739 76.460289 45.598099
441.40497 76.018188 45.988911
442.83722 76.206024 45.596424
496.00784 76.826767 45.97628
12.777863 77.145927 45.151875
20.957916 77.145912 45.151917
29.138 77.14592 45.151894
37.318085 77.14592 45.15189
45.498184 77.14592 45.151882
53.678268 77.145927 45.151859
61.858322 77.145912 45.151901
70.038391 77.145905 45.151947
78.21846 77.145905 45.151932
83.565292 77.833054 45.637638
86.39856 77.145912 45.151924
94.578629 77.145912 45.151901
102.75874 77.14592 45.151894
110.93877 77.145912 45.151924
119.11888 77.145912 45.15192
127.29897 77.145912 45.151917
135.47903 77.14592 45.151894
143.65915 77.14592 45.15189
146.18956 77.550163 45.631176
151.8392 77.145905 45.151932
160.01929 77.145912 45.151913
168.19937 77.145912 45.151909
176.37949 77.145912 45.151901
184.55957 77.14592 45.151897
196.5947 77.46254 45.17041
323.62048 77.147476 45.146309
331.80057 77.147476 45.146286
339.98053 77.147461 45.146339
348.16058 77.147476 45.146317
356.34064 77.147461 45.146347
364.52063 77.147461 45.146339
372.70065 77.147476 45.146294
380.88068 77.147476 45.146317
389.06076 77.147476 45.146301
397.24078 77.147469 45.146332
405.42084 77.147461 45.146355
413.60089 77.147476 45.146309
421.78085 77.147476 45.146309
429.96088 77.147461 45.146339
433.58649 77.190315 45.993843
434.92548 77.877655 45.596947
438.14096 77.147476 45.146317
446.32095 77.147476 45.146317
454.50104 77.147476 45.146294
462.68106 77.147469 45.146324
470.86108 77.147461 45.146347
479.04114 77.147476 45.146294
487.22113 77.147476 45.146294
488.42896 77.982544 45.976234
491.36136 77.612686 45.595318
495.40118 77.147491 45.146271
503.58124 77.147476 45.146301
-2.7146425 78.352692 45.179008
-1.5454636 78.466347 45.245628
1.7311225 78.94664 45.916214
3.4667816 78.785301 45.365974
19.771069 78.121223 45.644218
176.90489 78.602097 45.387962
377.48944 78.147324 45.598579
425.72903 78.365662 45.993908
10.278349 79.907249 45.644867
74.319366 79.601776 45.638245
137.18292 79.301956 45.631783
182.00644 79.079979 45.825989
196.95587 79.479912 45.657406
202.46548 79.108582 45.462025
326.28146 79.034569 45.475121
369.33279 79.842438 45.599106
417.83173 79.549591 45.998848
426.97629 79.55719 45.597439
480.81256 79.146736 45.981133
483.61368 79.276947 45.595825
-0.67760468 80.646149 45.162502
1.4919281 80.227654 45.274353
409.89496 80.736801 45.99894
473.15836 80.314011 45.981113
475.82968 80.949005 45.596321
6.5961761 81.544662 45.258057
14.709656 81.544662 45.258057
22.823059 81.544647 45.258087
30.936554 81.54464 45.258102
39.050049 81.544678 45.258045
47.163513 81.544678 45.258045
55.276917 81.544662 45.25808
63.390411 81.544647 45.258099
65.027328 81.379341 45.638874
71.503937 81.544678 45.258053
79.617371 81.544678 45.258041
87.73082 81.544647 45.258091
95.844284 81.544647 45.258091
103.95779 81.544678 45.258053
112.07126 81.544678 45.258053
120.18471 81.544647 45.258102
128.21417 81.30574 45.447418
136.41165 81.544678 45.258041
144.52513 81.544678 45.258045
152.63857 81.544647 45.258095
160.75208 81.544678 45.258049
168.86554 81.544678 45.258053
170.40381 81.375648 45.148659
176.97896 81.544647 45.258087
197.64954 81.74807 45.032574
302.34039 81.583405 45.498268
331.13538 81.541779 45.263
339.24835 81.544647 45.258087
347.36182 81.544678 45.258041
355.47531 81.544678 45.258041
361.13696 81.549881 45.603844
363.58875 81.544647 45.258091
371.70221 81.544647 45.258091
379.81567 81.544693 45.258026
387.9292 81.544678 45.258053
396.04263 81.544647 45.258099
404.15613 81.54464 45.258102
412.26962 81.544662 45.258057
418.98947 81.244659 45.597927
420.38306 81.544678 45.258041
428.49646 81.544647 45.258087
436.60995 81.544647 45.258087
444.72345 81.544678 45.258041
452.83691 81.544678 45.258041
460.95038 81.544647 45.258087
465.46603 81.489777 45.985977
469.06384 81.544647 45.258087
477.17734 81.544678 45.258045
485.29077 81.544647 45.258091
493.40421 81.544662 45.258072
501.5177 81.544693 45.258026
10.957367 82.971542 45.000916
19.20018 82.971542 45.000931
27.443054 82.971542 45.0009
35.685913 82.971542 45.000931
43.928787 82.971542 45.000923
52.1716 82.971542 45.000923
60.41449 82.971542 45.000908
68.657333 82.971542 45.000938
76.900208 82.971542 45.0009
85.143036 82.971542 45.000923
93.385925 82.971542 45.0009
101.62878 82.971542 45.00087
109.87164 82.971542 45.000908
118.1145 82.971542 45.000874
119.03407 82.836014 45.637402
126.35736 82.971542 45.000908
134.60022 82.971542 45.000874
142.84308 82.971542 45.000912
151.08591 82.971542 45.000931
159.32874 82.971542 45.00095
167.57162 82.971542 45.000931
175.81445 82.971542 45.000954
196.10085 82.344475 45.418621
297.09644 82.923004 45.589874
332.61499 82.910141 45.711338
340.67163 82.971542 45.000965
348.91449 82.971542 45.000931
357.15732 82.971542 45.00095
365.40018 82.971542 45.000916
373.64301 82.971542 45.000938
381.88586 82.971542 45.000904
390.12875 82.971542 45.00095
398.37161 82.971542 45.000923
406.6145 82.971542 45.000969
410.96475 82.940125 45.598404
414.85736 82.971542 45.000938
423.10013 82.971542 45.000923
431.34302 82.971542 45.000923
439.58588 82.971542 45.000946
447.82874 82.971542 45.000916
456.07159 82.971542 45.000961
457.73544 82.668716 45.985992
464.31448 82.971542 45.000931
468.009 82.628952 45.596825
472.55737 82.971542 45.000977
480.80017 82.971542 45.000908
489.043 82.971542 45.000931
497.28592 82.971542 45.000931
55.6866 83.170303 45.64397
196.25174 83.218536 45.595768
352.90207 83.261276 45.604408
449.966 83.856262 45.990913
46.301163 84.965759 45.644627
109.89289 84.613976 45.638016
172.31754 84.268692 45.631561
173.32283 84.447906 45.191132
344.62762 84.980843 45.604912
402.90179 84.647987 45.603161
460.15143 84.316788 45.597301
1.7262721 85.654617 45.637394
3.4667816 85.981598 45.365974
5.2129517 85.613838 45.153732
13.372513 85.613831 45.15374
21.532043 85.613815 45.15379
29.69162 85.613815 45.153797
37.851212 85.613808 45.15382
46.010788 85.613831 45.153763
54.170395 85.613823 45.153786
62.329941 85.613815 45.15379
70.489517 85.613823 45.153778
78.649094 85.613815 45.153805
86.80867 85.613831 45.153748
94.968277 85.613823 45.153767
103.12784 85.613823 45.153774
111.28738 85.613831 45.153763
119.44698 85.613815 45.15379
127.60658 85.613831 45.153744
135.76614 85.613831 45.153751
143.92572 85.613831 45.153759
152.0853 85.613831 45.153763
160.24486 85.613823 45.15377
168.40491 85.615334 45.148163
196.81909 85.351959 45.22226
334.43518 85.750664 45.044487
339.755 85.615326 45.148201
347.91397 85.616844 45.142586
356.07404 85.615341 45.148155
364.23358 85.615341 45.148148
372.3931 85.615326 45.148186
380.55267 85.615318 45.148209
388.71216 85.615318 45.148216
396.8717 85.615341 45.148155
405.03125 85.615326 45.148205
413.19073 85.615334 45.148167
421.35022 85.615326 45.148205
429.50983 85.615341 45.148148
437.66937 85.615318 45.148212
442.15793 85.047043 45.990936
445.82886 85.615334 45.148174
453.9884 85.615318 45.14822
462.14795 85.615326 45.148205
470.3074 85.615334 45.148167
478.46695 85.615334 45.148163
486.62646 85.615326 45.148197
494.78601 85.615326 45.148197
496.96405 85.737762 45.978199
502.94553 85.615311 45.148232
36.868622 86.770195 45.645267
100.70619 86.400818 45.638653
163.36778 86.042702 45.636585
296.22769 86.387642 45.13131
337.14758 86.615837 45.390011
394.80048 86.359695 45.603706
434.31024 86.246536 45.995911
452.25677 86.012611 45.597805
489.35782 86.920151 45.97821
-0.68089294 87.533295 45.053604
154.37527 87.820984 45.637184
196.67679 87.655411 45.657181
302.70712 87.92366 45.944851
426.42334 87.449326 45.995949
444.32492 87.720734 45.602497
500.97946 87.363998 45.596695
2.528923 88.171852 45.946014
10.251709 88.504547 45.434986
18.243362 88.504562 45.434975
26.23494 88.504562 45.434975
27.38855 88.583725 45.645905
34.226593 88.504578 45.434959
42.218185 88.50457 45.434967
50.209839 88.504578 45.434959
58.201401 88.504578 45.434959
66.193039 88.504601 45.434952
74.184647 88.504578 45.434959
82.176285 88.504601 45.434952
90.167892 88.504593 45.434956
91.473625 88.196564 45.639286
98.159515 88.504616 45.43494
106.15108 88.504562 45.434975
114.14273 88.50457 45.434967
122.13433 88.504562 45.434975
130.12595 88.504593 45.434952
138.11755 88.504578 45.434963
146.10919 88.504593 45.434952
154.1008 88.504578 45.434959
161.38527 88.315826 45.827587
162.09245 88.504601 45.434952
199.40468 88.339302 45.131165
332.48364 88.119965 45.839752
333.02969 88.658043 45.865654
345.89957 88.504593 45.434952
353.89117 88.50457 45.434967
361.88278 88.504608 45.434944
369.87439 88.504578 45.434959
377.86606 88.504601 45.434952
385.85764 88.504601 45.434952
386.66037 88.079582 45.604221
393.8493 88.504616 45.434944
401.84091 88.504585 45.434959
409.83252 88.504555 45.434978
417.82413 88.504601 45.434952
425.81573 88.504578 45.434959
433.80731 88.504578 45.434967
441.79895 88.504547 45.434982
449.79053 88.504593 45.434952
457.78217 88.504562 45.434975
465.7738 88.504578 45.434959
473.76544 88.504547 45.434982
481.73541 88.307877 45.70903
489.74866 88.504578 45.434967
497.7403 88.504593 45.434959
-1.7786179 89.576996 45.773643
145.33813 89.608139 45.637833
165.88899 89.008507 45.370224
197.6541 89.685287 45.029579
302.33588 89.479446 45.501198
378.4812 89.807709 45.604744
436.35519 89.432693 45.603001
474.03177 89.305328 45.983097
493.21295 89.060089 45.597157
0.60948181 90.388809 45.824207
4.4068012 90.354164 45.666847
5.2844925 90.186737 45.909538
6.5791397 90.36068 45.612835
9.7098751 90.35009 45.472729
11.918331 90.3134 45.131947
16.101345 90.363754 45.621902
17.697441 90.473633 45.269577
18.530357 90.22876 45.535332
22.603382 90.315628 45.756397
26.13776 90.437538 45.288563
34.11454 90.368317 45.959377
35.244839 90.155472 45.950417
50.307571 90.390625 45.670265
52.102005 90.154373 45.361023
53.788445 90.404976 45.271759
62.826572 90.328293 45.888702
74.45948 90.304955 45.256489
76.458313 90.437614 45.850788
82.192879 90.005852 45.644402
91.829506 90.381607 45.647312
95.124344 90.282814 45.074936
99.53302 90.417099 45.046402
100.13601 90.150146 45.439224
102.47232 90.332535 45.387169
112.27556 90.285896 45.189621
113.56126 90.449516 45.700066
116.86139 90.239807 45.604553
118.95426 90.341751 45.173897
120.57908 90.424721 45.776447
126.49425 90.316673 45.564804
127.87866 90.448975 45.275154
129.52296 90.343086 45.286755
131.22176 90.341286 45.764053
145.75583 90.240944 45.018631
147.186 90.29216 45.423119
148.32907 90.153084 45.640648
156.9052 90.329247 45.044304
157.19958 90.408112 45.266518
196.1035 90.430801 45.41362
336.25369 90.134453 45.745022
346.59695 90.265656 45.76619
353.76917 90.432434 45.054905
357.41974 90.533813 45.553413
368.5896 90.320534 45.49342
378.03983 90.505402 45.275024
382.34869 90.267349 45.116062
385.06912 90.440933 45.913925
389.61868 90.49807 45.266548
390.38699 90.393478 45.293804
401.33038 90.271881 45.315899
420.18225 90.404984 45.946335
438.55566 90.343849 45.444084
442.06613 90.159714 45.31044
444.33435 90.400414 45.019203
461.33038 90.315277 45.915081
475.55859 90.163979 45.9021
478.20367 90.382095 45.236282
481.92975 90.280869 45.861404
491.77496 90.41407 45.395142
493.78491 90.414085 45.402809
494.88214 90.162872 45.269535
196.25938 91.607613 45.847359
202.4841 91.157501 45.733959
196.81668 93.554085 45.151772
297.11755 93.823425 45.918396
196.96791 95.485603 45.787365
302.69513 96.556038 45.787514
197.6541 97.622314 45.029579
302.33588 97.37532 45.501198
196.1062 98.517227 45.4086
199.40883 99.484749 45.265625
207.12384 100.31487 45.44516
208.97781 100.24165 45.275272
214.96623 100.40425 45.926048
216.18353 100.37744 45.35231
223.68018 100.45476 45.123901
224.7498 100.24953 45.931965
225.30991 100.15056 45.502068
228.35841 100.4012 45.556046
230.1321 100.45604 45.967911
232.55887 100.34248 45.730965
240.49203 100.43541 45.042076
243.29236 100.15057 45.836197
244.11993 100.36787 45.65416
245.54456 100.51367 45.741058
248.99281 100.3663 45.174919
251.0094 100.35899 45.16663
254.34731 100.49858 45.844772
255.88036 100.36789 45.654022
256.70819 100.15055 45.836128
259.50391 100.43283 45.040195
267.44165 100.3425 45.730881
269.86462 100.45387 45.964516
271.64432 100.40422 45.552174
274.69052 100.15056 45.502075
275.24832 100.24497 45.930573
276.31772 100.45027 45.133751
283.81689 100.37744 45.352364
285.03198 100.40117 45.922096
291.02481 100.24622 45.273903
292.87885 100.31538 45.443947
199.15886 0.41854095 46.881516
200.97484 0.44983673 46.405876
201.9101 0.36511421 46.516201
206.36414 0.25596237 46.22599
209.78992 0.424366 46.269348
210.28975 0.33884048 46.763336
217.83194 0.42438889 46.269379
218.69543 0.45616531 46.923962
219.26732 0.48896027 46.917706
220.81227 0.14766788 46.899963
223.53836 0.45402527 46.498333
225.87401 0.4243927 46.269386
228.62866 0.40573978 46.387337
229.28343 0.33001328 46.617035
233.5058 0.3947649 46.621002
234.93755 0.34901047 46.709854
235.72205 0.44591904 46.712021
238.78383 0.15213537 46.32003
239.27557 0.25596237 46.78949
240.60959 0.36406708 46.944824
241.69255 0.46447563 46.521889
242.95264 0.15144539 46.425377
243.10175 0.24198532 46.229126
244.79013 0.36043358 46.149426
245.39073 0.36040115 46.593208
248.91397 0.50305557 46.152126
250.0002 0.42438126 46.269371
251.12497 0.51786041 46.016003
254.61316 0.36405182 46.590759
255.21028 0.36042595 46.149372
256.90646 0.25597 46.224979
257.04773 0.15146828 46.425407
258.3573 0.47130013 46.568398
259.39078 0.36408615 46.944916
260.71707 0.24198532 46.785477
261.21661 0.15212774 46.320053
264.27841 0.44590759 46.712082
265.06299 0.34898758 46.709854
266.49493 0.39295864 46.618965
270.73151 0.36016464 46.234322
271.3718 0.40573406 46.387352
274.12637 0.42437363 46.269356
276.46063 0.45172119 46.503475
279.18921 0.15283012 46.898422
280.74893 0.48521423 46.920265
281.30005 0.45346451 46.925896
282.16846 0.42437744 46.269363
289.70923 0.33994421 46.766968
290.21054 0.42437744 46.269367
293.63342 0.25122261 46.224716
298.25259 0.42440796 46.269413
300.09747 0.45170593 46.890537
196.10876 1.8141994 46.680733
301.77921 3.544342 46.785671
295.97595 4.8066788 46.061905
297.65555 5.5411649 46.354801
196.10054 8.2974205 46.13681
203.05045 8.0840683 46.184822
301.2771 9.1645298 46.730419
4.1559844 10.394936 46.548962
13.870866 10.375488 46.177704
16.366238 10.359814 46.518044
18.449558 10.145273 46.624474
19.898705 10.348133 46.218384
21.610769 10.263518 46.206078
22.957878 10.316376 46.179539
27.15522 10.467857 46.544647
29.049734 10.674244 46.066849
31.426842 10.225113 46.272842
33.826408 10.319099 46.817863
35.134895 10.250169 46.238071
38.7001 10.148932 46.903816
40.677906 10.321899 46.862335
41.999634 10.302071 46.162308
48.712738 10.2763 46.89233
51.863579 10.321461 46.159698
58.020527 10.294273 46.766327
61.534859 10.225857 46.863297
65.410225 10.276501 46.732475
68.604561 10.310677 46.466949
70.101509 10.307236 46.667381
81.846687 10.365966 46.390907
82.302452 10.280899 46.568005
87.83699 10.679314 46.563538
88.910637 10.231041 46.310043
95.064278 10.439365 46.571987
96.395386 10.316143 46.785965
97.925613 10.312611 46.194988
99.237701 10.328488 46.549957
100.63647 10.400204 46.255138
101.62697 10.378225 46.657421
111.64494 10.478466 46.316612
113.6658 10.151348 46.92281
116.68223 10.285582 46.236031
126.18554 10.582451 46.391232
129.96539 10.381804 46.346409
130.96016 10.153213 46.327965
131.86617 10.342821 46.306686
133.12411 10.430518 46.726883
134.40514 10.292722 46.218105
135.89693 10.46632 46.9347
138.68605 10.42556 46.49049
140.02531 10.342524 46.946968
142.51427 10.395638 46.212116
144.5067 10.345959 46.995277
152.84561 10.345707 46.194046
154.87294 10.860031 46.210445
163.82945 10.584728 46.208473
342.93961 10.263866 46.757679
344.96045 10.380524 46.845085
349.46829 10.363764 46.999855
350.37912 10.15736 46.316936
353.12476 10.52737 46.455578
354.90472 10.159336 46.255054
364.10788 10.471199 46.924217
368.96051 10.428238 46.896008
373.5817 10.161297 46.855694
385.9668 10.549469 46.856537
386.33456 10.151321 46.922764
388.35089 10.473625 46.306259
402.38016 10.390732 46.81118
403.27078 10.462328 46.519905
404.93704 10.43485 46.562309
408.6926 10.40995 46.629738
414.00546 10.773254 46.117249
418.15384 10.365958 46.3909
421.7673 10.516973 46.115566
422.06802 10.58078 46.917854
439.45883 10.676693 46.279255
441.99216 10.354698 46.801785
443.4924 10.267967 46.685272
447.33072 10.400032 46.212933
451.16333 10.446152 46.567211
456.47281 10.163929 46.62677
471.87024 10.537766 46.378578
472.54843 10.361946 46.810463
474.02319 10.458126 46.406406
478.39484 10.324802 46.149513
480.66013 10.162598 46.43071
481.58707 10.567753 46.747375
482.37979 10.2696 46.019928
483.50458 10.713608 46.956314
495.69916 10.35088 46.445755
19.54771 11.754574 46.067074
20.985544 11.390405 46.586395
43.19286 11.011307 46.873257
91.160378 11.069313 46.362408
97.319557 11.989884 46.561951
102.6656 11.410606 46.046822
118.60976 11.974693 46.21862
127.74179 11.693981 46.216503
135.39012 11.057365 46.382957
136.82939 11.41465 46.214508
144.54715 11.528778 46.380501
145.87299 11.136673 46.212479
149.10925 11.99601 46.851227
153.65945 11.99789 46.378017
154.12831 11.452008 46.353661
161.9082 11.285305 46.534515
165.4839 11.528926 46.717762
196.08543 11.740248 46.144226
361.35318 11.758804 46.454399
368.98181 11.702216 46.778076
382.60477 11.810638 46.12933
386.64804 11.213081 46.301048
390.50818 11.549696 46.127689
398.37589 11.289921 46.125942
406.20801 11.031334 46.124325
418.4599 11.099525 46.430126
444.36853 11.582798 46.288952
447.20715 11.111797 46.27718
454.92053 11.544926 46.275173
460.24023 11.397884 46.979591
462.59921 11.976112 46.273163
481.70898 11.653469 46.405373
501.07761 11.941792 46.281277
1.0377998 12.181126 46.348244
9.9915848 12.843224 46.072651
30.795223 12.718677 46.584717
36.497223 12.492069 46.373383
90.941864 12.825783 46.230618
93.516632 12.47699 46.052189
100.30597 12.704802 46.294277
109.43057 12.257473 46.226456
162.72731 12.464706 46.375568
301.78482 12.447882 46.862877
350.62906 12.866398 46.136265
352.17459 12.093226 46.960243
358.6778 12.600645 46.134499
366.68979 12.336117 46.132824
369.64322 12.624403 46.698639
374.66541 12.072781 46.131115
387.11996 12.428949 46.938236
394.79617 12.93634 46.298855
404.2984 12.598192 46.930122
421.28662 12.761383 46.919434
426.39099 12.312393 46.423996
438.08685 12.922735 46.908844
464.9425 12.618475 46.755585
470.24341 12.405365 46.271114
477.85376 12.833763 46.263847
489.35675 12.845612 46.399452
-0.66153336 13.553196 46.226593
12.441608 13.708672 46.425297
23.036102 13.21505 46.882736
53.413708 13.979328 46.239105
62.865387 13.688805 46.236973
72.270447 13.3997 46.234814
81.629181 13.11203 46.232712
84.321655 13.546566 46.052345
106.75299 13.296303 46.555046
159.70485 13.013563 46.386948
160.38644 13.550306 46.993179
163.13052 13.233905 46.351269
165.02094 13.172901 46.032654
169.87625 13.621629 46.766247
295.99118 13.668854 46.319305
330.03479 13.915413 46.237217
342.54327 13.133356 46.137974
343.54886 13.543373 46.312916
351.58667 13.891973 46.545979
434.28189 13.516376 46.422871
452.30829 13.289986 46.286808
454.70206 13.082293 46.898331
471.13489 13.244276 46.890617
476.20721 13.875351 46.966118
485.42978 13.25919 46.261826
487.38937 13.400425 46.880383
492.97208 13.682705 46.259876
499.13986 13.166012 46.943226
503.25726 13.492325 46.927105
22.198078 14.188242 46.422607
24.774889 14.859623 46.24551
31.905279 14.665373 46.420013
34.368771 14.564732 46.243374
40.553566 14.042592 46.577686
43.914948 14.271301 46.241226
45.940353 14.300236 46.370884
75.075317 14.624302 46.057793
109.59985 14.659174 46.357544
116.13282 14.592663 46.553505
129.80919 14.170683 46.860443
156.16371 14.228836 46.037926
196.00922 14.486596 46.963882
331.66321 14.420868 46.722996
344.57385 14.311943 46.304619
359.86493 14.422455 46.303097
367.96594 14.858395 46.30098
377.68552 14.208458 46.44194
402.90543 14.655674 46.292439
442.13348 14.717068 46.416847
448.13519 14.689314 46.763901
452.71875 14.601885 46.98959
460.21039 14.989105 46.284676
495.80399 14.70488 46.994114
496.96667 14.02914 46.398457
500.48077 14.10434 46.257942
5.4423885 15.453873 46.249897
15.132828 15.156017 46.247761
41.563709 15.140114 46.4174
50.255413 15.356272 46.576019
51.176613 15.613655 46.408836
65.78231 15.705269 46.057953
125.46428 15.884979 46.546623
147.26228 15.287838 46.038048
376.02966 15.292328 46.298882
384.05643 15.724289 46.29673
385.78879 15.421158 46.440784
449.9455 15.909008 46.415771
490.37253 15.979326 46.097847
497.80505 15.71694 46.096283
-0.53768921 16.471542 46.842735
1.1607208 16.144135 46.315193
55.338409 16.103836 46.36396
56.437061 16.794533 46.063419
59.906761 16.665703 46.568993
60.738377 16.083651 46.406216
70.252365 16.551291 46.403633
110.31136 16.362442 46.868187
118.75101 16.44071 46.355171
138.31209 16.354866 46.043381
297.63574 16.429249 46.027573
326.59473 16.809029 46.136032
352.85651 16.034927 46.302395
392.04633 16.154251 46.294655
393.85147 16.630486 46.434593
399.99976 16.582253 46.292542
410.97617 16.362534 46.290298
431.16269 16.780481 46.772263
467.87683 16.774153 46.107903
468.07535 16.680214 46.282555
475.40848 16.508263 46.106293
482.90717 16.242886 46.099483
491.9761 16.325161 46.956398
47.044384 17.887112 46.063629
64.687347 17.893932 46.36153
69.502579 17.964991 46.567402
79.718987 17.016596 46.401112
89.13858 17.479601 46.398563
98.511398 17.940298 46.396057
129.31708 17.425003 46.043522
134.74312 17.16737 46.545116
325.61569 17.599243 46.666439
329.75455 17.823742 46.083385
332.80872 17.633627 46.305214
336.19339 17.369217 46.459106
361.09961 17.749651 46.300205
401.87289 17.830898 46.433514
407.91687 17.008308 46.290405
415.79852 17.433472 46.28299
423.64377 17.855652 46.280926
437.41284 17.84963 46.114445
445.07983 17.578957 46.112778
452.71274 17.309496 46.111164
457.71881 17.097744 46.409744
460.31161 17.041233 46.109558
468.82416 17.076611 46.979553
1.0377998 18.484293 46.348244
37.598602 18.988098 46.069153
90.609467 18.582363 46.877628
107.83794 18.398724 46.393547
117.11848 18.854893 46.39101
120.27254 18.503246 46.048851
127.85688 18.21348 46.35276
143.97418 18.445793 46.538307
172.64177 18.746384 46.20319
343.80426 18.497316 46.976021
344.47488 18.58725 46.452827
361.56873 18.630968 46.96479
379.13156 18.763065 46.953651
396.49625 18.893736 46.942688
406.39853 18.944536 46.12114
414.11356 18.778023 46.449318
419.00867 18.061363 46.288113
421.97537 18.394619 46.117764
429.71146 18.121519 46.116135
431.45346 18.275921 46.278839
439.22787 18.694283 46.276817
465.45331 18.277847 46.408691
475.90338 18.363373 46.280472
9.8799448 19.362543 46.372478
73.989655 19.675102 46.359112
79.048561 19.260147 46.560417
111.18251 19.584698 46.049019
126.35336 19.308817 46.388493
135.54294 19.760508 46.38604
136.79776 19.956024 46.283661
145.73358 19.635517 46.214954
153.1557 19.717358 46.531502
154.74565 19.337952 46.212906
163.71425 19.041828 46.210926
170.07074 19.654221 46.754715
321.1647 19.425064 46.241108
352.71313 19.796238 46.451675
369.30353 19.460457 46.29377
382.76678 19.779482 46.131561
390.67953 19.500135 46.129845
398.55722 19.221359 46.122826
409.85431 19.028008 46.427437
413.66519 19.02717 46.934498
427.00323 19.75214 46.285969
430.64349 19.15489 46.923752
446.96716 19.110767 46.274792
447.43347 19.281191 46.913105
454.67166 19.525372 46.272766
462.34152 19.93811 46.270767
464.03812 19.406076 46.902569
473.14941 19.454758 46.40279
480.46008 19.53381 46.894833
484.73083 19.517807 46.966175
496.70337 19.655949 46.884514
-0.66153526 20.12038 46.122116
12.172684 20.098948 46.583218
28.101906 20.094986 46.074677
70.701706 20.825485 46.887123
88.540024 20.545296 46.558876
102.04204 20.674393 46.054428
109.24377 20.840347 46.223118
118.43307 20.536938 46.221119
127.57758 20.234997 46.219017
144.68738 20.209984 46.383579
153.78954 20.65839 46.375298
162.28799 20.982082 46.524796
301.28717 20.439137 46.796608
320.13623 20.096949 46.723896
350.75262 20.909683 46.138447
358.81119 20.625196 46.136757
366.83279 20.342007 46.135025
374.81793 20.060104 46.133282
417.79514 20.216404 46.426292
461.35605 20.31237 46.989594
469.97705 20.349007 46.268768
477.57874 20.75909 46.261456
480.80731 20.62318 46.401749
483.69473 20.038662 46.278362
3.3639221 21.876114 46.161888
18.556759 21.20533 46.074921
19.385788 21.156754 46.365505
21.990936 21.401012 46.581627
81.401108 21.760357 46.235268
83.245865 21.447493 46.356647
90.729454 21.451668 46.227329
92.853058 21.769848 46.05983
97.982483 21.826427 46.551918
100.0093 21.145264 46.225235
145.93582 21.737232 46.343609
162.845 21.103489 46.372887
171.85645 21.546423 46.370472
173.51204 21.234423 46.034832
176.73308 21.647015 46.860104
180.82426 21.987219 46.368019
301.79468 21.434465 46.939037
317.99179 21.251265 46.379517
326.53772 21.656559 46.413605
334.52307 21.483328 46.147438
335.22836 21.348209 46.312576
342.65701 21.195494 46.14027
343.4328 21.77058 46.310387
360.91019 21.001881 46.445389
377.4682 21.158861 46.291611
396.71271 21.019804 46.787788
425.69644 21.401527 46.420212
434.95996 21.434883 46.28389
485.14615 21.166313 46.25951
488.42749 21.788506 46.395821
491.44913 21.710285 46.272102
492.70285 21.684862 46.510548
500.31076 21.952095 46.604233
8.960083 22.321632 46.075142
12.770921 22.68388 46.422356
28.841618 22.937437 46.363087
31.758011 22.698895 46.574543
53.145802 22.693302 46.241634
62.610893 22.380775 46.239517
72.029236 22.069801 46.237404
83.617607 22.868618 46.06002
164.66354 22.313025 46.040146
171.36954 22.237209 46.523323
296.00357 22.4765 46.570309
327.28558 22.579727 46.301567
351.59924 22.190971 46.308323
359.72885 22.610493 46.300606
369.06479 22.198605 46.444237
385.59412 22.849203 46.289463
433.55783 22.577984 46.419189
477.40048 22.750431 46.979622
496.19193 22.556452 46.695923
14.810007 23.959091 46.250332
22.5131 23.14011 46.419773
24.465969 23.640266 46.248131
32.206276 23.594051 46.417122
34.07365 23.323036 46.245968
41.468582 23.986732 46.572849
43.633492 23.007381 46.243809
50.58707 23.086672 46.895123
74.330399 23.97578 46.065483
92.456116 23.211014 46.354267
107.37131 23.09767 46.550411
154.90784 23.483919 46.341263
155.77077 23.394754 46.040264
157.47632 23.888027 46.870979
176.6181 23.606371 46.52372
177.01366 23.483051 46.81488
180.40468 23.488499 46.516647
367.82013 23.027023 46.298531
375.87421 23.441643 46.296394
377.17856 23.39196 46.438099
379.23013 23.173792 46.796432
383.89124 23.854357 46.2943
441.38022 23.751297 46.413128
442.8793 23.109764 46.28175
475.97418 23.929081 46.773399
483.18527 23.997501 46.101631
490.659 23.716526 46.100006
498.09979 23.436787 46.098385
499.16788 23.369942 46.270039
-1.5935555 24.340248 46.250328
1.0377998 24.787457 46.348244
5.1054568 24.279526 46.252544
38.250271 24.709276 46.360649
41.850769 24.045712 46.414539
51.446873 24.495108 46.411922
60.995014 24.942253 46.409344
101.62086 24.965857 46.35186
116.71172 24.364941 46.543564
146.82936 24.48465 46.045555
335.58438 24.277691 46.299377
385.2507 24.576591 46.436928
391.87152 24.265182 46.292168
393.68158 24.531525 46.287338
399.81549 24.674137 46.29007
449.16342 24.91605 46.412098
450.76147 24.776756 46.279659
460.56421 24.848639 46.111702
468.138 24.563911 46.110123
475.6785 24.279715 46.103176
503.55533 24.099289 46.388969
-2.4169159 25.347542 46.898701
30.258209 25.377213 46.904835
51.128616 25.270374 46.56588
64.996063 25.086315 46.065674
70.498291 25.388283 46.400887
79.951492 25.830984 46.398331
126.00185 25.625393 46.536747
137.84079 25.580324 46.050938
163.83594 25.222052 46.338928
327.55942 25.427578 46.456352
335.29504 25.004189 46.989265
343.84402 25.971773 46.292976
353.25507 25.105917 46.980621
361.5723 25.34935 46.805122
371.01086 25.20211 46.969345
388.56461 25.297228 46.958164
393.28262 25.757919 46.430832
405.91901 25.395567 46.94986
407.72321 25.081221 46.288017
415.59497 25.486456 46.285961
423.25537 25.689699 46.608742
437.63931 25.710499 46.116608
440.04721 25.580379 46.928108
445.31506 25.421928 46.114952
452.9567 25.134644 46.113319
456.82657 25.671289 46.917439
473.41983 25.765398 46.909515
489.83148 25.850029 46.896374
493.24692 25.155315 46.966179
-0.66470623 26.717598 46.017803
47.612106 26.472296 46.358219
55.609001 26.205395 46.071213
60.733139 26.544106 46.564293
89.357788 26.271492 46.395775
98.717468 26.709814 46.393257
110.74219 26.716372 46.345116
128.80705 26.679216 46.051086
135.23984 26.876205 46.535267
138.02081 26.146921 46.880398
172.72179 26.956038 46.332233
181.4326 26.890823 46.203613
335.84982 26.62039 46.45517
401.50208 26.568274 46.357433
406.58887 26.877853 46.123348
414.40405 26.584038 46.121635
422.18396 26.291548 46.119965
429.92896 26.000374 46.118282
431.23215 26.292429 46.276459
438.99753 26.692179 46.274487
456.90817 26.077721 46.406082
458.60675 26.435974 46.277546
459.05643 26.070843 46.780411
469.98569 26.017765 46.989624
1.5588722 27.728807 46.070301
9.7160072 27.686432 46.913013
46.174255 27.327877 46.071426
70.287964 27.813797 46.557327
108.03101 27.145973 46.390736
117.29865 27.579983 46.388248
119.72334 27.786467 46.056492
154.61807 27.838217 46.215408
163.60091 27.520361 46.20763
172.53822 27.20484 46.20565
343.73669 27.546864 46.81395
344.09885 27.809866 46.448906
352.06403 27.65362 46.290802
382.92923 27.768055 46.133808
390.85214 27.469475 46.12672
398.73834 27.172995 46.125034
409.742 27.872444 46.283028
446.72778 27.090132 46.272442
454.42343 27.486303 46.270416
462.0845 27.880688 46.268417
464.61447 27.233612 46.400139
36.685814 28.459019 46.07695
56.927513 28.226608 46.355759
110.59374 28.897028 46.056671
118.36218 28.429331 46.889904
119.81681 28.453949 46.342751
126.52068 28.01186 46.385761
127.41298 28.798681 46.221554
135.69757 28.44162 46.383274
136.52548 28.476965 46.219475
144.63002 28.496231 46.454659
145.59381 28.156809 46.217407
181.56422 28.681507 46.325607
193.2056 28.160213 46.29855
314.95532 28.764629 46.670097
315.34317 28.717201 46.635956
318.61932 28.763088 46.314499
334.25165 28.013929 46.004543
350.87653 28.973095 46.140793
352.30484 28.99053 46.447731
358.94476 28.669758 46.138981
366.9761 28.367817 46.137245
374.97086 28.067253 46.135517
409.22473 28.100094 46.42363
441.97119 28.239023 46.788956
466.41534 28.087437 46.275433
469.71143 28.273312 46.266441
472.28247 28.381107 46.39917
477.30411 28.664183 46.26445
485.97025 28.416199 46.976082
27.14887 29.593685 46.077213
66.196716 29.972191 46.353355
79.788254 29.073711 46.555748
99.806709 29.773306 46.227764
109.05393 29.446831 46.225632
118.25588 29.121969 46.223629
153.74557 29.329678 46.447205
162.96243 29.719404 46.370209
182.02878 29.320353 46.03701
325.72183 29.750488 46.818241
326.48764 29.376791 46.156147
334.62717 29.584721 46.14975
335.12271 29.574272 46.310081
342.77103 29.277817 46.142502
343.31708 29.977034 46.307926
360.24487 29.327442 46.288662
417.4256 29.396053 46.351746
474.18707 29.735249 46.269238
479.91275 29.522991 46.398155
484.86325 29.054293 46.257137
492.38855 29.441681 46.255196
499.88043 29.827354 46.253258
13.21495 30.055573 46.57843
17.557375 30.737103 46.082802
71.790169 30.762419 46.234089
81.175186 30.43108 46.231949
89.239532 30.329639 46.54887
90.513893 30.101381 46.229847
98.497177 30.735754 46.899525
101.41329 30.01606 46.062103
128.847 30.183027 46.340385
162.66264 30.594322 46.520348
171.96172 30.140846 46.36779
173.18922 30.421722 46.042313
180.91745 30.560251 46.365387
190.36356 30.398596 46.318985
317.95966 30.128334 46.004597
318.22687 30.202034 46.158863
351.47354 30.377941 46.305786
359.59323 30.777987 46.29818
360.47 30.167908 46.441551
368.38705 30.993347 46.286537
424.71567 30.428854 46.7976
425.00742 30.418835 46.416527
487.5054 30.661842 46.39225
501.75647 30.784893 46.962658
-1.5908356 31.291908 46.55196
1.0377998 31.090618 46.348244
7.9166884 31.884113 46.083076
11.849137 31.515396 46.359726
13.099174 31.634369 46.419628
22.990601 31.327536 46.571373
43.351303 31.767176 46.24641
52.877151 31.430872 46.244259
62.355766 31.096222 46.242062
75.422119 31.713448 46.3466
92.186279 31.138485 46.062317
98.637238 31.575928 46.547359
137.83289 31.903593 46.338066
164.30519 31.526323 46.042454
171.70694 31.821438 46.51368
301.30099 31.905817 46.863049
344.80185 31.689686 46.996822
362.75458 31.748695 46.985313
367.67465 31.175203 46.296055
368.59299 31.336626 46.440403
375.71896 31.570593 46.293934
380.5014 31.80699 46.973915
383.72635 31.964172 46.291832
398.04495 31.86908 46.965473
415.39053 31.92605 46.954365
425.6517 31.181955 46.278831
432.69 31.775322 46.679398
478.60764 31.718098 46.989655
481.92313 31.371326 46.267181
483.46411 31.770782 46.103687
490.9462 31.472309 46.102131
495.06082 31.792511 46.391258
498.3952 31.175138 46.100498
1.6151733 32.594856 46.304749
14.486267 32.786247 46.252964
22.827328 32.067429 46.416916
24.156218 32.444855 46.250763
32.608002 32.543945 46.492077
33.777767 32.10516 46.248531
42.13694 32.926994 46.411705
82.907593 32.269459 46.067726
107.98669 32.818344 46.540501
155.37254 32.639282 46.047791
299.4155 32.916981 46.309986
310.60745 32.282722 46.45982
318.41708 32.470482 46.296398
376.58325 32.576778 46.359306
391.69717 32.355942 46.289772
399.63162 32.745941 46.287651
407.28714 32.640594 46.806309
433.55075 32.825081 46.27676
440.63306 32.714531 46.409435
449.49805 32.038086 46.932472
453.20129 32.978798 46.115475
460.81747 32.674965 46.113838
466.26654 32.093216 46.921761
468.40015 32.371727 46.106941
475.94885 32.070583 46.105293
482.84912 32.147682 46.911121
489.62317 32.999836 46.265106
499.24875 32.201561 46.900635
502.57928 32.920219 46.385471
21.270252 33.2603 46.3573
42.37838 33.847698 46.562744
51.719265 33.353546 46.409138
61.253803 33.777985 46.406525
73.581696 33.403931 46.067997
78.424484 33.06089 46.907658
84.60009 33.441841 46.344219
146.58492 33.685638 46.191818
180.70329 33.042042 46.507061
185.42877 33.693661 46.87846
318.9512 33.46196 46.453568
384.7168 33.659061 46.433121
407.52997 33.134151 46.285641
415.39246 33.520603 46.283558
423.21933 33.905304 46.281517
430.14709 33.898502 46.120464
437.8663 33.590565 46.118828
445.55099 33.283997 46.117149
448.38779 33.855103 46.403534
1.5633192 34.495514 46.351303
30.644661 34.996559 46.354874
64.20311 34.547112 46.073517
70.740814 34.200294 46.403984
80.180672 34.620506 46.401436
117.28578 34.054058 46.533737
137.36772 34.880253 46.05331
302.7738 34.610432 46.923328
326.6922 34.135811 46.294205
327.25125 34.632481 46.452385
350.77435 34.74733 46.001549
384.55634 34.301662 46.282257
389.68317 34.874596 46.815113
392.71817 34.81284 46.427017
406.77969 34.830704 46.125549
414.60406 34.518559 46.123798
422.39307 34.207832 46.122135
431.01135 34.28923 46.27409
438.76767 34.670467 46.272053
441.4126 34.464622 46.270538
456.10388 34.987473 46.402435
494.53134 34.079929 46.97612
497.28705 34.624802 46.258976
1.1263046 35.934204 46.060219
51.991535 35.096016 46.561184
54.776672 35.693787 46.073734
58.137074 35.416279 46.91748
89.573792 35.038643 46.398861
93.73288 35.161728 46.341854
98.923042 35.45575 46.390484
108.2235 35.869751 46.388023
126.53268 35.280342 46.532242
155.67493 35.323887 46.329075
172.43445 35.685497 46.208107
181.34068 35.350651 46.206074
334.92841 35.79731 46.28788
335.50906 35.797043 46.451214
342.69882 35.81768 46.001602
383.09277 35.775639 46.130608
391.02432 35.459229 46.128929
392.58405 35.944145 46.28017
398.91989 35.144257 46.127262
400.67932 35.960823 46.420952
446.48904 35.049973 46.270096
454.17587 35.427795 46.268082
461.82816 35.803909 46.266117
471.15976 35.055695 46.999748
487.22162 35.446514 46.787117
39.974926 36.728523 46.348087
45.296585 36.849319 46.079288
61.555084 36.340408 46.55423
102.82092 36.873173 46.339508
117.47826 36.281719 46.38554
126.68759 36.691673 46.383049
128.29277 36.010925 46.058701
135.73233 36.502865 46.52549
145.45583 36.699791 46.214134
154.49229 36.360054 46.212128
163.48509 36.021957 46.210106
166.01813 36.020855 46.889557
310.23389 36.61805 46.31966
334.58182 36.895859 46.006569
343.72568 36.958324 46.44503
359.07874 36.734402 46.141251
367.11984 36.41362 46.139523
375.12411 36.094303 46.137787
449.2381 36.092468 46.268463
463.78204 36.116787 46.396564
469.44626 36.178356 46.264076
477.03043 36.551125 46.262108
484.58096 36.923161 46.254868
1.0377998 37.393784 46.348244
37.633213 37.796841 46.927376
71.063988 37.57518 46.552719
118.07829 37.729862 46.226074
119.1718 37.144997 46.05888
127.24798 37.385113 46.224018
135.85188 37.099621 46.380581
136.37296 37.042046 46.221947
144.92711 37.612202 46.448475
154.04871 37.910557 46.369904
164.53014 37.019444 46.326775
318.53317 37.006695 46.317497
326.60886 37.686539 46.163445
334.73151 37.70647 46.15205
335.01733 37.779568 46.307598
342.88541 37.380405 46.144745
343.12521 37.446892 46.28569
351.00073 37.056664 46.143036
371.90115 37.125801 46.822464
400.5741 37.578964 46.27803
408.6001 37.100418 46.419876
457.02722 37.712784 46.266357
470.1936 37.67733 46.797272
471.42227 37.237999 46.395546
487.22299 37.410316 46.986084
492.09781 37.292625 46.252892
499.58139 37.660446 46.25098
-1.3622942 38.394196 46.496166
35.767937 38.00845 46.079544
49.256824 38.447624 46.345699
80.524071 38.80611 46.54583
90.297714 38.774315 46.232357
99.603462 38.424461 46.230309
108.86359 38.076305 46.228188
110.00004 38.287739 46.064335
111.86629 38.580513 46.332817
146.40347 38.372509 46.900761
153.98463 38.928352 46.512131
163.07957 38.312557 46.367516
172.06673 38.71262 46.365101
173.34378 38.710979 46.320187
181.74078 38.555069 46.044479
303.07391 38.179142 46.118359
310.04279 38.692944 46.168457
318.31097 38.362312 46.161121
326.54083 38.033222 46.153824
343.20157 38.162834 46.305454
351.6239 38.327713 46.373581
359.45697 38.924068 46.301178
372.30325 38.425789 46.990002
390.03992 38.450356 46.981403
407.57471 38.470158 46.970058
416.48175 38.236938 46.413872
424.91016 38.489761 46.958904
442.04959 38.509174 46.947865
458.9964 38.528301 46.936916
475.75369 38.547249 46.926121
479.02509 38.356239 46.389709
492.3251 38.56163 46.912743
498.69141 38.932068 46.102676
14.251244 39.928665 46.568165
26.184715 39.176567 46.085163
62.102768 39.834351 46.238758
71.547661 39.479263 46.236637
80.945892 39.125916 46.234497
100.78158 39.43396 46.064564
172.86559 39.68269 46.044666
181.01038 39.110741 46.362728
318.22537 39.066158 46.011673
351.28336 39.088642 46.283577
353.9382 39.405365 46.83147
360.03329 39.260662 46.437668
367.52954 39.303009 46.293617
375.56412 39.67926 46.291538
408.52667 39.210098 46.271847
424.32376 39.365189 46.412842
452.99442 39.925217 46.805969
464.78012 39.325493 46.264359
476.21991 39.88028 46.107445
483.74359 39.562805 46.105801
486.59048 39.466454 46.388725
491.23401 39.246738 46.104218
503.08585 39.735588 46.972546
13.426743 40.560326 46.41666
16.732075 40.272762 46.510635
23.14061 40.970299 46.414036
33.480995 40.911228 46.251205
43.068336 40.550774 46.249004
52.610722 40.191223 46.240906
58.493053 40.15826 46.343346
89.933083 40.030399 46.538967
91.511536 40.588909 46.070015
120.86569 40.275261 46.330502
126.58331 40.743309 46.910477
163.48895 40.473732 46.280365
182.11469 40.394299 46.313641
309.98642 40.155804 46.006744
359.40308 40.722664 46.281471
368.1257 40.404396 46.431576
383.56192 40.053806 46.289352
391.52322 40.426613 46.287361
399.44824 40.797741 46.285286
416.44211 40.829636 46.269745
432.12717 40.490475 46.406792
453.44647 40.842037 46.117664
461.07172 40.519482 46.110695
468.66272 40.199169 46.10907
472.49722 40.930817 46.262299
479.82788 40.782825 46.999741
494.11902 40.573772 46.382946
1.5678091 41.292934 46.633518
2.6646862 41.99704 46.34647
6.8642278 41.529221 46.091133
14.161675 41.637566 46.255524
23.912127 41.21933 46.410011
32.805756 41.378216 46.411434
42.422348 41.784073 46.408878
67.683815 41.860474 46.340996
82.194046 41.747459 46.070267
99.288849 41.245277 46.537495
129.82127 41.961769 46.328194
154.97304 41.958321 46.050159
172.0416 41.325417 46.504105
310.36752 41.469795 46.455864
335.79227 41.697247 46.837452
376.1767 41.539787 46.430431
407.33728 41.167183 46.283199
415.19052 41.534946 46.281155
423.00818 41.901043 46.27911
430.36566 41.815971 46.122627
438.09381 41.489864 46.120949
439.89157 41.60754 46.405807
445.78729 41.16523 46.119312
501.61075 41.673191 46.381931
-2.6069047 42.682415 46.195366
33.655979 42.3978 46.559612
51.991013 42.18792 46.406296
61.511887 42.589745 46.403732
70.985428 42.989574 46.401165
72.824066 42.914867 46.075787
108.59685 42.456432 46.530693
180.99942 42.515781 46.497574
190.84319 42.069511 46.307091
309.64401 42.254761 46.291252
318.67822 42.620785 46.449654
359.23593 42.555157 46.003632
367.48471 42.349045 46.279335
384.18784 42.67205 46.424366
406.97101 42.80315 46.127686
414.80444 42.472607 46.126026
422.6026 42.143551 46.124329
424.32071 42.441605 46.2677
430.79059 42.265488 46.277088
435.62231 42.201126 46.816307
438.53836 42.629204 46.269661
446.25095 42.990372 46.267719
447.61792 42.72168 46.399876
480.17819 42.532665 46.256172
1.0377998 43.696945 46.348244
13.786458 43.471451 46.347157
43.277637 43.62088 46.558037
76.829651 43.554398 46.338634
80.411942 43.387421 46.398609
89.79187 43.783295 46.396091
106.55285 43.139297 46.920315
117.85487 43.661057 46.523979
138.73335 43.640045 46.325928
145.9547 43.106476 46.055527
181.25061 43.831776 46.202812
301.30783 43.58165 46.932369
302.76843 43.684982 46.751274
317.89536 43.887974 46.289124
326.94556 43.763329 46.448425
351.16995 43.646664 46.003651
375.5285 43.971802 46.273079
383.25595 43.803856 46.132877
391.19702 43.468765 46.131126
392.15817 43.796066 46.423229
399.10187 43.135204 46.12941
453.9288 43.349926 46.265678
455.30585 43.827766 46.398857
461.57239 43.707863 46.263721
495.82959 43.100513 46.986095
1.1316566 44.308578 46.563385
52.849808 44.840103 46.551136
63.406044 44.085907 46.076038
99.125427 44.177219 46.393555
108.41553 44.570171 46.385242
117.65746 44.960228 46.382751
127.0612 44.856533 46.522526
136.8885 44.260754 46.060974
154.36406 44.905205 46.214565
163.36897 44.545959 46.212551
172.33037 44.18845 46.210526
310.15942 44.861473 46.317165
317.46133 44.001492 46.840366
335.17188 44.902649 46.442257
343.06238 44.74622 46.008671
359.21307 44.81921 46.143574
367.26382 44.479481 46.141747
375.27859 44.14048 46.134621
400.08923 44.917007 46.417244
418.07391 44.48922 46.823654
432.16275 44.046112 46.26564
462.95615 44.930927 46.393036
469.18182 44.064201 46.261787
476.75742 44.418968 46.259769
484.29947 44.773033 46.25251
487.82428 44.123173 46.254173
-3.5370259 45.639027 46.870926
23.126696 45.172714 46.344841
53.93449 45.265972 46.081612
85.932663 45.244225 46.331955
86.308792 45.560856 46.930241
126.85404 45.348354 46.380348
127.4306 45.705978 46.14093
136.11403 45.681778 46.298286
145.31525 45.266205 46.216652
147.60233 45.310249 46.323631
318.44839 45.230453 46.314938
326.40356 45.557663 46.297749
334.88806 45.886932 46.154247
342.99997 45.503349 46.147068
351.12521 45.160488 46.145287
381.90149 45.137459 46.994675
383.53461 45.582958 46.270996
399.62848 45.123459 46.986019
417.15332 45.105064 46.974655
434.47833 45.086906 46.963425
439.96841 45.643166 46.263603
451.60696 45.068966 46.952335
468.54257 45.051208 46.941383
485.28876 45.029224 46.92778
491.80786 45.124641 46.250607
495.43512 45.70636 46.252182
499.28305 45.474689 46.248688
501.84787 45.011845 46.917046
32.42099 46.865662 46.342484
44.411465 46.452461 46.087242
62.36729 46.049915 46.549637
94.989281 46.921585 46.329651
108.67271 46.728851 46.230701
117.90266 46.359806 46.222778
118.61329 46.585056 46.066597
136.2207 46.048359 46.515846
145.11276 46.118958 46.375427
154.17772 46.502403 46.367203
156.42841 46.972351 46.321369
163.19641 46.883034 46.364784
310.11807 46.892513 46.165253
318.39648 46.542366 46.157951
326.68005 46.577118 46.084949
343.22095 46.18082 46.372047
351.22293 46.690231 46.300873
400.34723 46.806 46.832642
407.98035 46.029827 46.416168
470.56882 46.026207 46.391983
488.48926 46.501759 46.996193
