# .PCD v0.7 - Point Cloud Data file format
VERSION 0.7
FIELDS x y z
SIZE 4 4 4
TYPE F F F
COUNT 1 1 1
WIDTH 723
HEIGHT 1
VIEWPOINT 0 0 0 1 0 0 0
POINTS 723
DATA ascii
203.6107 6.0700917 -2.13041
216.86142 6.3131566 -2.1434438
232.41525 6.0232606 -2.0536129
247.87581 6.2547202 -1.9510803
262.20926 6.7006168 -2.0648837
277.53857 6.6404619 -2.2162204
292.14798 6.5965371 -2.1803861
302.15186 7.8020587 -1.989386
204.10362 22.414236 -2.2159595
216.40704 22.708326 -2.1981664
232.4837 22.130907 -2.2016277
247.61546 22.582539 -2.1308455
262.39648 23.235182 -2.0143216
277.10223 22.676943 -2.274868
291.20886 22.548254 -2.1949053
302.07294 22.346264 -2.6139829
204.74757 37.973629 -2.297117
217.02962 37.600666 -2.2485514
232.14099 37.390823 -2.1209123
247.6185 38.057316 -2.2113001
262.22357 38.47324 -1.9453553
276.87469 37.76157 -2.4305141
291.64044 38.015781 -2.1084957
302.40213 37.848484 -2.372577
204.54129 52.790039 -2.1838982
216.74371 52.490719 -2.2570074
232.22437 52.824074 -2.1464243
247.44881 53.163021 -2.1602759
262.25473 52.217823 -1.8996588
276.9389 52.946175 -2.452076
291.46887 52.940418 -2.1719904
302.63901 53.287224 -2.3174438
204.75841 67.513443 -2.3161135
216.27351 67.594604 -2.3280063
232.01755 67.676453 -2.3748214
247.73552 67.647957 -2.2806504
262.22833 67.756683 -2.0526907
276.20526 67.473785 -2.5843246
291.39545 66.889885 -2.3810441
302.46747 67.865082 -2.2799399
204.12221 83.227371 -2.2360871
217.21582 82.501854 -2.3584945
232.39996 82.793701 -2.0414236
247.65135 82.439796 -2.1132798
262.69962 82.934265 -2.0600562
277.77344 82.041069 -2.1256313
291.72351 81.599144 -2.1934745
302.24197 82.326378 -2.1116848
203.20692 96.790016 -1.94622
217.5217 95.962364 -2.1102183
232.16371 96.466591 -2.1081171
247.86533 96.293625 -1.853206
262.21329 96.221275 -2.0691161
277.0304 96.325531 -2.1588328
292.33478 95.959785 -2.3167377
301.76718 96.01252 -1.8962947
202.70789 4.9858651 6.8809032
216.90273 2.9001112 5.7980347
231.81546 2.6666968 6.4269924
247.26343 3.0755105 5.582005
262.59927 2.8804264 5.6562953
277.47345 2.6934698 6.0763593
292.87103 3.9539244 5.8894634
302.28705 6.0639191 8.1535521
201.6996 22.567877 6.6559453
216.58759 21.917318 2.0911283
231.54814 21.964983 2.1440353
246.90482 23.099825 2.1157839
262.08334 22.232462 2.083235
276.63855 21.945673 2.139003
293.79678 22.48605 3.7864194
302.29315 22.805212 7.9769082
201.58823 37.715725 6.3377004
216.45009 37.54285 1.9761343
231.28183 37.578449 2.071939
246.97705 38.00312 2.106137
262.38376 38.081364 1.9962779
277.40277 37.472237 2.0065498
294.39627 37.756905 4.0901709
302.396 37.744812 8.2510757
201.62657 52.774311 6.3549676
216.23813 52.965889 2.0894508
231.5598 53.156273 2.0808063
246.9005 52.379898 2.1193323
262.24646 53.294529 2.1188293
277.21823 53.741817 2.0888596
293.90823 52.772076 4.1849194
302.34778 52.801998 8.3174782
201.51511 67.764244 6.7007565
215.70903 67.666489 2.0365655
231.48062 68.134071 2.0227072
246.89063 67.923027 2.1658692
262.02219 68.698479 2.0430138
277.03729 68.389832 2.0412033
293.91129 68.070374 3.6655967
302.34146 68.12587 8.2576847
201.48676 82.798424 6.3002677
216.42451 82.838676 1.9693587
231.32443 83.042458 2.0483079
246.96236 84.003296 2.1765149
262.27466 83.775459 1.9155861
276.83804 83.120758 1.9775182
293.81686 83.316246 3.9042549
302.418 83.193306 8.2103376
203.04712 97.826393 7.3182039
217.08374 99.098885 6.3769245
231.56848 99.050888 6.8389006
246.99944 99.076477 6.3670926
262.29306 99.074669 6.3802481
277.27075 99.090454 6.8989801
292.81244 98.38533 6.5030122
302.4126 96.966949 8.257556
202.16029 4.168963 22.678534
217.12041 0.32041126 22.269182
232.4351 0.32146806 22.853382
246.87822 0.32028872 21.656994
262.06528 0.31584841 22.293314
277.57001 0.31696486 22.970205
293.69391 2.3284018 22.290415
302.11777 6.5339894 22.210886
200.65633 22.30423 22.543192
298.10089 22.497122 22.918278
302.04211 22.222528 22.174667
201.07645 37.976284 22.571417
298.51877 37.348999 22.613525
302.2262 37.946381 22.687498
201.2648 53.039421 22.167681
298.55331 52.496849 21.999371
302.22195 53.064762 22.57715
200.83777 68.066719 22.508951
298.22205 67.819473 22.809748
302.198 68.212936 22.556078
200.64476 82.875351 22.382437
298.0668 83.051811 22.654167
302.05353 83.10762 22.204502
202.57553 97.9002 22.606253
216.74785 100.32832 22.6752
232.37158 100.32781 22.888855
246.91165 100.32341 21.924253
261.96671 100.32316 22.339451
277.50607 100.31629 23.224417
292.86969 99.385361 22.574842
301.95728 96.499901 22.412268
-1.4158816 12.36791 43.837872
8.1793966 11.807277 43.084133
23.705122 11.647794 42.974472
37.674141 11.624334 42.755455
52.557964 12.076788 42.937927
67.791351 11.547907 43.342293
83.430878 11.572954 43.017853
98.049858 11.979268 42.863033
111.94278 11.565742 42.886261
126.87173 11.877241 42.781727
142.65784 11.934691 42.598179
157.88701 12.230517 42.878475
166.31073 14.035053 42.979061
201.96086 4.7878866 37.534782
217.38651 0.31399399 37.391052
232.1732 0.32650608 37.476616
247.66371 0.33154422 37.404518
262.46313 0.32137701 37.863564
277.64362 0.32267597 37.462616
294.01401 2.31846 37.400475
302.29495 6.6053591 36.779549
339.0022 11.973626 42.834839
351.62219 11.370696 43.272102
366.94028 11.286119 42.88168
382.83493 11.619125 43.014687
398.30426 12.220076 42.773746
413.45944 11.902817 42.552822
427.51001 11.551702 42.719418
442.56161 11.85932 42.523182
459.1763 11.885543 42.727901
473.01215 11.819835 42.464417
487.28787 11.619595 42.782646
498.48596 11.994035 42.552631
-1.3431326 22.080797 43.496914
7.9898109 22.158173 42.649372
22.256052 22.503696 42.773758
36.96051 22.675346 42.715416
52.111771 22.996412 42.854156
66.932495 22.966558 42.601021
81.948395 22.122149 42.730545
97.935318 22.951263 42.74144
111.75758 22.753683 42.739376
126.46902 22.338228 42.666965
142.56754 22.680376 42.603504
158.11752 22.569427 42.8461
171.85312 22.8599 42.812012
184.2213 26.861561 42.674915
200.90297 22.667082 37.137943
298.26297 21.808334 36.814999
302.53485 23.102192 36.926243
324.84674 22.810057 42.815765
337.39944 23.009476 43.364044
351.93213 22.302124 43.093079
367.59067 22.604771 42.973534
383.04214 23.072466 42.910931
398.00415 23.037336 42.766022
412.64236 23.35557 42.715961
427.68713 22.539242 42.555862
442.0975 22.650429 42.873367
457.51138 22.383162 42.768559
472.38382 22.525866 42.513767
488.34836 22.275221 42.492428
499.13269 22.48148 42.664738
-1.0632421 36.849705 43.653606
7.6104789 37.250885 42.643227
21.928919 37.409145 42.773872
37.018768 37.774551 42.5387
51.898056 37.714615 42.852982
67.04599 37.859859 42.69886
81.803551 37.699947 42.786243
97.780403 37.716919 42.693497
112.2193 37.633179 42.838943
127.10732 37.514347 42.701897
142.02927 37.468586 42.476753
157.80415 37.210918 42.768883
172.30223 37.546547 42.569298
186.90578 37.508923 42.639763
200.59074 37.937969 38.386436
298.85519 37.631649 37.009426
302.44629 38.034138 37.045025
322.92337 37.106709 43.980392
338.14987 37.439335 43.518906
352.75446 37.618977 43.164223
368.27139 37.354385 43.096405
382.5842 37.275475 42.798229
396.9584 38.222637 42.697861
412.56488 37.150867 42.745365
426.90039 36.712864 42.802822
442.04309 37.773888 42.673786
458.25082 37.335728 42.908173
472.41544 36.860802 42.350838
488.64066 37.563995 42.655148
499.83685 36.293571 43.275707
-1.4539737 52.8386 43.48782
7.6931186 52.512825 42.803841
22.219744 52.637978 42.844887
37.451874 52.893234 42.705379
51.843639 52.757339 42.796532
66.926788 53.015518 42.682804
81.823502 53.228008 42.843369
98.083458 52.350262 42.694176
112.17728 52.846035 43.089844
127.07845 52.908184 42.772057
142.68185 52.607761 42.4958
157.7547 52.279854 42.8517
171.95981 52.647575 42.726822
186.40901 52.355934 42.694225
200.75063 52.620537 38.25243
299.12238 52.205452 37.347939
302.55212 52.37978 37.09185
323.13474 53.086586 44.177338
338.17966 52.927605 43.675488
352.77158 52.947693 43.208828
368.37875 52.018948 43.15918
382.40674 51.747128 42.923504
396.44455 52.595512 42.903679
412.84161 52.580482 42.702797
426.41785 53.497265 42.79427
441.74484 52.674561 42.766434
458.27707 52.202103 42.66943
471.73373 52.784328 42.380451
488.30811 53.350983 42.823505
500.50012 52.25531 43.030041
-1.482828 66.910149 43.751003
7.2776513 67.156494 42.639198
21.599483 67.29995 42.745911
36.529961 67.73793 42.791206
52.081276 67.725479 42.876076
67.063026 67.984657 42.615593
81.857567 68.084526 42.76379
97.691666 68.039474 42.750969
111.96933 67.608017 42.837784
127.3928 67.880661 42.649261
142.64699 67.659523 42.482414
157.67731 67.613487 42.846848
171.58902 68.196434 42.68306
186.11446 67.688576 42.790886
200.94313 67.23999 38.078362
298.46826 68.464798 37.114761
302.83057 67.907806 37.232502
324.08759 67.305565 44.089188
338.32764 67.914314 43.643883
352.54944 68.189011 43.239815
368.12308 67.637672 43.024929
382.8783 68.07151 42.750893
397.51868 67.96666 42.858196
412.52551 67.491074 42.704853
427.12622 68.242737 42.833466
442.2038 67.554619 42.625084
457.75009 68.256409 42.812035
472.04422 67.662544 42.439861
488.43564 67.585014 42.642899
499.315 67.417572 42.66753
-1.1822987 83.804413 43.763672
7.7246151 82.151466 42.633984
22.527159 82.247185 42.718693
37.488548 82.410614 42.613194
52.340153 82.389534 42.72998
67.25798 82.527 42.634026
82.016167 82.22477 42.696442
97.683273 82.980278 42.578938
111.7133 82.588997 42.65321
127.16868 82.642548 42.678307
142.9473 82.565239 42.576157
158.36043 82.970612 42.621456
170.81715 81.246269 42.734608
182.28465 77.190041 43.152401
200.88896 83.186882 37.415012
298.17709 83.580963 37.254326
302.25043 83.032486 36.719383
324.5 78.748077 42.453438
337.87183 83.242203 43.171272
352.74402 82.419678 43.056049
367.58704 83.325218 42.936882
381.65546 82.534851 42.828068
396.35739 82.730278 42.659569
413.02582 82.318901 42.635677
428.35822 82.39489 42.58622
442.17795 82.091438 42.570278
457.35403 82.775543 42.682175
472.39352 81.513802 42.32365
488.23502 81.91713 42.704319
499.01678 82.595337 42.745781
-2.1777992 90.372261 42.757156
8.2982073 90.272743 43.343777
23.690825 90.259232 42.950405
38.376324 90.262245 43.288776
53.891289 90.299957 43.224628
67.200714 90.282753 43.713783
82.145599 90.275497 43.253193
97.726555 90.278275 43.371063
111.97103 90.297951 42.686424
127.0174 90.271065 42.960667
142.8293 90.292931 42.79324
157.28874 90.330917 42.890335
202.61154 98.182404 37.858669
217.33519 100.31818 37.246334
232.26215 100.32076 37.499012
247.54437 100.33071 37.802193
262.27722 100.31799 37.956738
277.60046 100.3186 37.648838
293.28448 99.45031 37.608105
302.27234 96.010353 36.68998
342.14844 90.253067 42.795265
352.74603 90.317787 42.784275
368.02548 90.3536 42.869389
384.06326 90.335426 42.833405
399.42465 90.253517 42.829262
413.0892 90.381401 42.560112
427.05771 90.347244 42.580013
443.73544 90.366783 42.049854
458.92017 90.381767 42.186554
472.45013 90.374184 42.540756
489.08435 90.34642 42.524639
498.25064 90.173828 41.691334
-1.7029535 12.263836 51.518776
8.0758581 11.577524 51.46909
22.63036 11.332306 51.494091
37.154633 11.297095 51.192867
52.762257 11.384707 51.649948
67.697113 11.430471 51.620113
82.796371 11.300451 51.988274
97.63755 11.384125 51.431774
112.25325 11.374394 51.636978
127.64983 11.389112 51.616871
142.63965 11.223467 51.425709
156.94289 11.498223 51.265217
167.02399 13.066079 51.191757
202.10608 4.302557 52.806404
216.7637 0.31818679 52.511925
231.93614 0.32012865 52.503498
246.85565 0.34240752 53.027546
262.02795 0.33210814 52.534969
277.81796 0.32056621 52.459629
293.83795 2.4302418 52.726341
302.09808 6.925087 53.295193
329.08539 14.223583 49.036621
338.52835 12.162069 51.960209
352.7446 11.38228 52.03986
367.53503 11.533076 52.168682
382.45517 11.337899 51.87463
397.61746 11.365225 51.847904
413.23959 11.30018 52.09515
427.68439 11.337073 52.093666
442.15375 11.406363 51.889736
457.54932 11.437246 51.938816
472.40204 11.452382 52.25034
487.49814 11.347569 51.91394
499.27051 12.171593 51.824574
-1.5630423 22.533037 50.783306
6.6428728 22.373003 52.129238
22.708113 22.669701 52.323303
37.566925 22.477932 52.669239
52.252319 22.323311 52.314495
67.103302 22.456135 52.096653
82.656998 22.515793 52.419567
97.31443 22.940462 52.462681
112.37557 22.644836 52.024857
127.71621 22.389515 52.472805
142.53949 22.78747 51.9884
157.51894 22.405035 52.081371
171.95787 22.37191 51.504959
184.39337 25.565475 49.798382
199.35043 22.49925 52.765846
297.62378 22.04068 52.701447
305.01425 24.177145 52.640041
323.05011 23.638716 52.761463
337.37585 22.406279 52.10965
352.74207 22.424944 52.524612
367.4794 22.533438 52.211578
382.11212 22.437136 52.633675
396.90671 22.895229 52.235428
412.37674 22.431011 52.192001
427.49835 22.315493 52.438915
442.52374 22.545553 52.386124
457.52145 22.648794 52.26545
472.10959 22.710573 52.255379
487.64166 22.295307 52.280437
499.2926 22.460867 51.335907
-1.8191376 37.560787 50.97514
6.6112857 37.354828 51.995285
22.470026 37.538765 52.456356
37.748249 37.770412 52.156445
52.475262 37.483768 52.430584
66.874641 37.537968 52.287788
82.102081 37.422745 52.359848
97.401169 37.93774 52.165565
112.43604 37.80743 52.026562
127.68861 37.724567 52.474506
143.01331 37.497833 51.841763
157.73442 37.629532 51.927692
171.93475 37.442192 51.677029
186.76735 37.538425 51.103199
198.94096 36.657421 53.052979
298.41144 35.80785 53.788155
306.38504 37.22435 52.878422
322.00354 37.725758 52.366226
337.52469 37.506172 52.257702
352.82431 37.517658 52.604641
367.72278 37.471268 52.317013
381.84991 37.675308 52.593582
396.45874 38.038773 52.056526
412.09073 37.455574 52.323452
427.30734 37.697639 52.381695
442.57321 37.881012 52.028824
458.01587 37.740837 52.440517
472.32767 37.623894 52.445972
487.19199 37.463852 52.166203
499.14664 37.365368 51.425129
-1.9298542 52.94051 51.103073
6.8236346 52.824421 52.089958
22.572033 52.843128 52.769634
38.096581 52.843269 52.522312
52.321388 52.650063 52.480263
66.295624 53.142757 52.264774
82.099915 52.833263 52.705109
97.264046 52.595539 52.327137
112.73151 52.546619 52.249405
127.8041 52.740417 52.533264
143.0074 52.329201 51.859253
157.73662 52.638542 52.03138
171.79323 52.609482 51.874321
186.74319 53.043228 51.662251
198.12135 52.484188 54.475235
298.90262 53.410198 56.631214
306.74243 52.837879 52.821899
322.27151 52.67577 52.552391
337.51984 52.459282 52.255016
352.75183 52.348522 52.692703
367.4472 52.823063 52.203091
381.66705 52.761127 52.613819
396.43826 52.614502 52.261372
411.95163 52.745399 52.352882
427.40436 53.109577 52.506214
442.61218 52.987736 52.212254
458.01205 52.663265 52.359604
472.32666 52.952187 52.413254
487.24295 52.644608 52.349369
499.20306 52.657509 51.369987
-1.9038218 67.832024 50.547676
6.40061 67.212013 51.952236
22.873394 67.620872 52.497189
37.824581 67.76001 52.503445
51.870117 67.610283 52.29063
66.745583 67.795952 51.954411
82.399017 67.717827 52.356552
97.542404 67.616798 52.529385
112.50751 67.870842 52.0853
127.35893 67.643639 52.409218
142.6758 67.571716 51.725124
157.797 67.613144 51.94183
171.73572 68.147522 51.662628
186.41896 67.566177 50.85862
199.15961 68.164108 52.992439
298.05014 68.514938 53.034859
306.70935 67.339912 52.976452
321.99854 67.983696 52.515247
337.4476 67.782036 52.22879
352.74307 67.489395 52.416172
367.4841 67.614357 52.164745
382.00342 67.857719 52.575226
396.82907 67.863487 52.337746
412.11014 67.516098 52.147121
427.23117 67.925674 52.420628
442.46384 67.658394 52.172523
457.63321 67.612488 52.075184
472.49197 67.706894 52.255516
487.45935 67.215134 52.239334
499.27908 67.22525 51.338112
-1.4821383 82.151772 51.130219
6.9552221 82.235878 52.088543
22.726002 82.628525 52.206726
37.231396 82.130402 52.372665
52.152542 82.30629 52.642017
67.189285 82.500938 52.20689
83.018143 82.531914 52.554676
97.354156 82.930611 51.978291
112.29956 82.879326 52.33091
127.63291 82.631561 52.513496
142.70345 82.768501 52.055668
157.92024 83.210953 51.604565
171.35115 81.594734 51.269421
182.71841 77.560501 49.885155
199.63068 83.280655 52.544582
297.85876 83.244118 52.911655
302.86481 82.90963 52.356297
324.03674 79.69162 52.4571
337.27026 83.307671 52.251705
352.4202 82.729164 52.626396
367.30173 82.609283 52.369186
382.30136 82.792442 52.299965
397.07898 82.944031 52.329357
412.36929 82.587936 52.391117
427.62259 82.518448 52.305828
442.21298 82.312668 52.218616
457.47665 82.554947 52.441071
472.31506 82.533211 52.521648
487.49176 81.979378 52.177994
499.26929 82.587311 51.39592
-1.4806974 90.307625 51.553738
8.2049637 90.305313 50.999588
22.056023 90.323524 50.735664
37.206043 90.320175 51.143185
53.07579 90.319206 50.815075
68.33004 90.324165 51.260303
82.648911 90.312401 51.291622
97.928314 90.312401 50.902752
112.09097 90.320763 50.921047
127.18154 90.316772 50.714569
142.21016 90.333405 51.010807
155.36537 90.305206 50.960224
202.70168 98.352531 52.784107
217.2756 100.31936 52.308987
232.16937 100.31676 52.55402
246.91216 100.34573 52.702843
262.07141 100.33067 52.519569
277.9902 100.32066 52.535034
293.5744 99.320992 52.52026
302.15933 96.55896 53.403553
341.60641 90.326096 51.952309
352.71414 90.31279 50.97747
367.70514 90.316101 51.939568
382.89432 90.318718 51.407261
397.58014 90.308319 51.476978
413.08478 90.296272 51.725838
427.12372 90.298058 51.85202
442.56387 90.312782 51.491348
457.42578 90.30864 51.489697
472.08667 90.290237 52.016617
487.43814 90.305412 51.620121
498.35425 90.308495 52.294094
3.4902725 11.926537 60.238682
26.27425 11.571423 60.087189
35.797813 10.401695 60.019062
73.863792 12.07312 60.112049
201.40741 4.504828 67.77198
217.45026 0.32288146 67.587578
231.85631 0.31870317 67.8013
247.25476 0.32015336 67.706306
262.18286 0.30969125 67.785149
277.40594 0.32658637 67.823814
294.3989 3.3906288 67.432709
302.45831 6.308044 69.190926
5.2135906 23.192196 60.312019
25.5014 21.948833 60.147697
34.758667 21.468575 60.18438
68.348297 21.280037 60.135876
80.164787 22.797188 60.055576
199.39349 22.574633 68.023911
297.71307 23.03904 67.148956
302.37842 22.384356 68.916595
5.0532951 36.527187 60.219795
27.467167 34.877464 60.109917
32.760918 36.540237 60.215897
64.387985 38.840744 60.082966
80.229164 36.17429 60.055462
198.93283 37.623699 67.920486
297.86362 38.248966 67.443962
302.47375 37.577648 69.849792
-1.4693832 49.819458 60.210602
5.8007164 50.683964 60.273399
29.038311 49.536911 60.233543
30.731224 49.811234 60.114189
63.276794 49.804848 60.110626
79.854858 52.396114 60.170048
127.29507 54.599041 60.020157
198.43199 52.599766 67.585007
297.67972 52.919388 67.036407
301.8017 50.945808 70.782127
-0.3104248 65.273994 60.075085
5.3212538 66.096512 60.283356
28.441992 64.455673 60.312061
30.923698 62.81881 60.097153
61.567657 66.507233 60.147575
76.949135 72.918663 60.240997
199.02385 68.019119 67.653648
297.74252 67.826172 67.1717
302.14801 67.616531 69.643929
3.4052596 81.858566 60.164513
26.668692 80.92086 60.336498
32.684021 82.539986 60.022163
73.812859 84.17601 60.290882
199.47736 82.918259 67.990738
297.82318 83.310661 66.809807
302.34116 82.55619 68.72718
202.26659 97.835243 67.774467
217.10368 100.33191 67.389023
232.08514 100.31946 67.937042
247.41704 100.3219 67.35984
262.186 100.31216 67.669029
277.32861 100.32225 67.69249
293.14328 99.108925 67.529053
302.36383 96.756676 69.369667
201.57106 4.1658683 82.436035
217.08183 0.31245467 82.867355
232.25742 0.3291218 82.920952
247.27357 0.31276563 82.927032
262.71219 0.3208544 82.672615
277.53867 0.3141894 83.366852
294.08679 2.6554353 82.043709
302.07953 6.1331701 83.395958
199.1105 22.274044 82.88961
298.01501 21.972816 82.391075
301.85538 22.467833 84.342674
199.04507 37.920555 82.713005
298.05038 38.005547 82.535759
302.12308 37.011024 84.775436
199.23715 52.848644 82.714203
298.0083 53.047405 82.400681
301.69586 52.870255 84.903488
199.08807 68.162827 82.44677
298.12799 68.204216 82.721748
301.73816 67.906624 84.593544
199.31165 83.20388 83.215698
298.08707 82.972389 82.333191
301.81726 83.027458 83.920296
202.08572 98.204971 82.735435
216.98732 100.32146 82.723663
232.0209 100.32872 82.982605
247.04585 100.3194 83.007225
262.34277 100.32288 82.675636
277.6438 100.32062 83.385277
293.63272 99.103424 82.261017
302.18851 96.320015 83.409126
202.31433 5.6301641 97.453651
217.07341 4.8320613 98.068466
232.68454 4.8955212 98.470703
247.64633 4.544898 98.356361
262.4418 4.6970844 98.396141
277.1098 4.6540742 98.692688
292.78732 5.1912103 97.23671
301.7937 5.2053804 98.096664
201.34848 22.828762 98.035225
216.63774 22.369749 99.810867
232.42113 22.404558 100.09397
247.71272 22.891403 100.02404
262.77161 22.326401 100.00947
277.57532 22.077618 100.193
293.25366 22.63497 98.68219
301.95569 22.299526 97.916771
201.42416 37.785591 98.077003
216.64481 37.748684 99.711044
232.42728 37.896244 99.959854
248.04456 38.028145 100.07452
262.9852 37.80835 100.02216
277.24548 37.62289 100.26355
293.22726 37.491898 98.51902
301.70413 39.019901 96.444138
201.05606 52.95826 97.734398
216.40935 53.186256 99.666435
232.41005 52.914379 99.998299
247.78705 52.856598 100.02925
262.74768 52.79105 99.978386
277.47195 53.028736 100.29913
293.39725 52.591187 98.446968
301.34854 52.742748 96.229225
201.50534 67.67186 98.102654
216.58653 67.84671 99.743835
232.52975 68.279335 100.20525
247.79272 67.765633 99.994843
262.66498 68.014717 99.973053
277.50235 67.80307 100.3037
292.99384 67.688919 98.735809
301.60181 65.84726 97.076485
201.40077 82.824158 98.160255
216.59464 82.710976 99.769096
232.57755 83.035324 99.98037
247.89796 83.185287 100.07352
262.80475 83.104858 100.02834
277.35837 82.651886 100.16023
293.27051 83.03347 98.571205
301.52365 82.075699 97.260918
202.6411 97.20517 97.290398
217.51453 97.696075 97.900963
232.4583 97.582726 98.219688
247.55547 97.830086 97.687592
262.58014 97.870987 97.895309
276.95575 97.801865 98.316628
292.75433 97.568581 96.965736
301.75809 96.942383 97.903008
