# .PCD v0.7 - Point Cloud Data file format
VERSION 0.7
FIELDS x y z
SIZE 4 4 4
TYPE F F F
COUNT 1 1 1
WIDTH 409
HEIGHT 1
VIEWPOINT 0 0 0 1 0 0 0
POINTS 409
DATA ascii
197.70883 7.9927301 -2.0221901
210.89963 9.3144531 -2.0869839
231.05276 8.8722219 -2.1922872
250.11125 9.0234032 -1.9119786
269.81171 9.7033358 -2.2756534
289.53934 8.9531059 -2.0790753
302.13275 9.5907459 -2.1977246
197.51369 31.328949 -2.226455
211.1427 30.557222 -2.1987312
230.95476 29.804132 -2.2963138
249.63557 30.361917 -2.1923084
269.84802 30.62397 -2.3686519
289.65558 29.774233 -2.1542077
302.18509 29.114414 -2.3888521
197.25488 49.6441 -3.0606794
211.25168 50.163769 -2.1596293
231.11874 49.846176 -2.1510985
249.46251 50.041958 -2.0703294
269.71066 50.18362 -2.2342298
289.16138 49.846451 -2.0864425
302.60147 49.880123 -2.3524935
198.04143 68.114052 -2.5823424
211.29416 69.660706 -2.2039504
231.01299 70.062492 -2.242456
249.69867 69.677238 -2.1423151
270.03674 69.73468 -2.3370657
289.99881 70.334419 -2.1428938
302.44589 70.434593 -2.1262012
197.65445 90.832794 -1.5301356
210.87965 90.004517 -2.2489212
231.06836 89.983147 -2.355366
249.75194 89.957039 -2.111331
269.61649 89.933632 -2.3114624
289.6015 90.489487 -2.253346
302.0574 89.389404 -2.143383
197.79366 100.19032 -1.5698935
207.32233 100.30985 -1.7332662
228.45992 100.37154 -1.6357079
249.92142 100.34223 -1.1144369
271.21146 100.32187 -1.9954559
288.14893 100.35397 -1.8022395
301.17514 100.37678 -1.5867643
198.17651 8.4366875 10.296028
208.22897 5.5124826 8.8469496
229.87576 3.9795098 7.6699367
249.79477 3.6747632 8.054739
269.94858 4.2104182 7.3398905
290.92563 4.9980474 8.2056751
302.16223 9.0367355 9.8072252
198.42622 29.444599 10.452467
206.28096 29.912756 6.4556365
229.32224 30.220734 2.090317
249.28142 30.544048 2.187571
269.96109 29.779556 2.167438
292.45798 30.259674 5.0669308
302.16739 29.765455 9.4944897
198.35146 49.785011 8.4735794
206.03574 49.750893 6.8618541
229.21411 50.1227 2.0902979
249.05519 49.929482 1.9529982
269.42828 50.053684 2.1564999
292.07922 50.179073 5.2739606
302.18723 50.131336 9.6109686
198.55641 70.364235 9.6816492
206.40985 70.146255 6.5309138
229.46889 69.948936 2.0917222
249.18823 69.531609 2.1887603
269.82007 70.325798 2.1390753
292.41837 70.049728 5.098659
302.15793 70.094322 9.4609566
198.23729 90.584084 10.936395
206.08286 90.315727 7.0597081
229.59682 90.259445 2.4413779
249.25917 90.671486 2.5119901
269.92529 90.104515 2.5286458
292.63358 90.432076 5.3485699
302.27533 90.004585 9.7940865
197.78036 100.34583 10.341442
210.41574 100.32266 10.594911
229.43335 100.3267 10.367425
249.89366 100.32653 11.294544
270.29318 100.33356 10.379424
289.3963 100.3226 10.819659
302.09076 100.2935 10.286698
197.50995 7.8069911 29.148329
207.48701 4.115953 30.159218
229.76752 0.33002177 30.289442
250.04485 0.31874216 30.618814
270.27786 0.32932478 30.306372
291.59265 2.7935431 29.806475
302.36191 9.3152266 29.789053
415.50912 19.442345 39.949471
428.84387 15.96819 39.841618
468.96448 10.986563 39.946877
495.57358 15.667997 39.644836
197.64713 28.3109 29.201075
202.35844 30.086405 30.906477
297.96872 29.486534 30.005497
302.46243 29.994461 29.95302
417.3317 32.417282 39.901909
429.12466 33.228085 39.947899
469.83899 27.997303 39.833477
495.19571 29.730795 39.73457
198.09137 50.001263 27.599083
202.33899 49.745026 30.627811
298.58167 49.70472 29.750727
302.41705 50.254578 29.633055
372.69492 54.589691 39.978031
419.18976 45.644966 39.853416
428.91321 54.47543 39.848534
469.6037 48.185677 39.821037
493.84146 47.483761 39.796734
501.46991 49.819462 39.789406
197.79836 71.549538 29.272264
202.33234 69.863724 30.866224
297.91769 70.240204 30.004234
302.47665 70.103851 29.976515
433.30798 68.645584 39.821972
470.68045 71.399864 39.788197
495.50006 68.191544 39.763569
500.31094 65.274002 39.924915
197.62781 91.061531 29.386551
202.66832 89.910698 30.684513
230.32509 99.998642 30.324827
250.00026 99.998634 30.324823
269.67548 99.998604 30.324825
297.13174 91.122551 30.256628
302.37622 89.715599 29.660387
426.18762 84.176025 39.709122
468.90182 88.287544 39.88879
495.86581 83.620888 39.796875
198.0309 100.30153 27.860115
210.74745 100.33749 29.95957
229.8512 100.33655 30.135593
249.99951 100.33083 30.732666
270.14981 100.33666 30.135916
289.15073 100.3381 29.873226
301.84641 100.31043 28.193609
-1.4458109 14.645819 49.550503
9.9576321 13.355997 49.445133
30.15843 13.447101 49.390026
49.904789 13.379709 49.42458
69.957062 13.466207 49.326115
89.680405 13.220381 49.681683
109.70258 13.531225 49.440376
129.95813 13.278148 49.452785
149.82094 13.362054 49.516899
166.74463 15.756756 48.940857
197.96327 8.7368631 49.690464
208.28653 2.6203773 49.972313
230.31689 0.31968635 49.999962
250.0002 0.33949643 49.999809
269.68329 0.31957912 49.999981
291.66342 2.6442425 50.027851
302.03732 8.7368679 50.309326
333.18652 15.713471 51.053341
350.18018 13.361295 50.482944
370.06946 13.297211 50.541466
390.29843 13.530931 50.559341
410.30249 13.212136 50.312542
430.0434 13.466032 50.674171
450.09558 13.379727 50.575336
469.84216 13.447079 50.610176
490.13239 13.391794 50.583942
501.55536 14.55681 50.249439
-1.6637821 29.571905 49.459572
9.5202618 29.749939 49.380898
30.180336 29.748796 49.196587
49.609085 29.939362 49.544254
69.728119 29.679327 49.278439
89.946884 29.812824 49.782593
109.61547 30.252291 49.303467
129.85579 29.668056 49.33952
149.57344 30.129566 49.20903
169.50342 29.656334 48.749775
189.92642 30.666048 48.484035
201.83217 28.531937 48.702221
298.18051 28.604961 51.276043
310.0722 30.631485 51.51614
330.51788 29.671499 51.253376
350.42868 30.129118 50.791142
370.11118 29.713036 50.658733
390.38528 30.251879 50.696701
410.05347 29.812893 50.21777
430.27191 29.679089 50.72187
450.39114 29.939631 50.455986
469.8197 29.74894 50.803818
490.58511 29.768003 50.646801
501.77753 29.450043 50.366001
-1.8343053 50.304775 49.959934
9.7639027 49.999821 49.539173
29.96089 49.985874 49.255775
49.169327 49.99313 49.459572
69.472885 49.899197 49.347366
89.608589 49.933613 49.529095
109.56453 49.984035 49.5252
129.53523 49.864567 49.247849
149.52728 49.979267 49.308025
169.31354 49.981754 48.534168
189.774 49.89959 48.440033
200.86897 49.711166 46.884026
299.13153 49.710781 53.116325
310.22653 49.899265 51.559978
330.68671 49.981621 51.465908
350.47391 49.978928 50.692081
370.47708 49.886127 50.759121
390.43616 49.983952 50.474911
410.3916 49.933701 50.471333
430.52756 49.899342 50.653183
450.83084 49.993397 50.540749
470.0394 49.985928 50.74453
490.34445 49.999962 50.490509
501.94644 50.323376 49.851997
-1.7788901 70.474014 49.50441
9.4107809 70.256142 49.418175
30.104145 70.25238 49.258011
49.550724 70.191528 49.426258
69.53241 70.24379 49.261513
89.768463 70.145744 49.831623
109.60101 69.660233 49.284241
129.87868 70.183022 49.30962
149.56598 69.89727 49.148235
169.24251 70.195442 48.866112
189.60295 69.247734 48.417522
201.82428 70.97216 48.539246
298.16571 71.031853 51.483635
310.39951 69.213867 51.582447
330.73611 70.211662 51.130772
350.43488 69.897301 50.851768
370.12149 70.18306 50.690441
390.39954 69.660271 50.716007
410.23203 70.145805 50.168694
430.46802 70.243912 50.738846
450.44604 70.170845 50.579659
469.89603 70.252441 50.742241
490.69324 70.238457 50.609974
501.90433 70.603195 50.311615
-1.3481485 85.818581 49.794132
9.962451 87.128166 49.324726
29.966228 87.031128 49.336849
49.814766 87.187698 49.424648
70.144417 86.960335 49.439636
89.949936 87.022369 49.723537
109.70289 86.690048 49.420292
129.79202 87.084892 49.389236
149.85785 87.044792 49.619934
167.30826 84.400665 48.708466
197.77495 90.601265 50.20068
202.83051 91.279587 49.47858
230.32509 99.99865 50
250.00027 99.998634 50.000008
269.67545 99.998619 50
297.17133 91.533585 50.506264
302.22562 90.601524 49.799129
332.75061 84.365196 51.29813
350.14246 87.044884 50.379997
370.20834 87.084892 50.61071
390.29776 86.690201 50.579849
410.05045 87.022591 50.276428
429.85587 86.96064 50.560417
450.19067 87.168274 50.568279
470.03378 87.03125 50.663368
490.15686 87.105507 50.698631
501.44415 85.935585 49.99931
198.5117 100.30629 49.068745
210.23235 100.33443 50.040173
230.04234 100.32983 50.007458
250.00055 100.35224 49.999638
269.95831 100.32996 49.992298
289.76843 100.33408 49.959564
301.48898 100.30567 50.931637
4.4269085 15.667997 60.355164
31.036032 10.986559 60.053123
71.147293 15.96862 60.156708
84.474854 19.455643 60.047829
197.63876 9.3151712 70.210648
208.36974 2.7751312 70.190063
229.72217 0.32964638 69.693626
249.95532 0.31889156 69.381195
270.23288 0.33001167 69.710396
292.4863 4.1395707 69.841568
302.49054 7.8069072 70.851875
4.8047423 29.730791 60.26543
30.161541 27.997299 60.166534
70.877548 33.227257 60.052612
82.657669 32.426392 60.096329
197.53841 29.994448 70.046761
202.03192 29.486584 69.994667
297.64188 30.086353 69.093338
302.35315 28.311016 70.798592
-1.4693832 49.819458 60.210602
6.1589913 47.483749 60.203266
30.396793 48.185669 60.178974
71.090729 54.473709 60.152473
80.805061 45.649658 60.145775
127.29507 54.599041 60.020157
197.58377 50.254509 70.367088
201.41872 49.706249 70.249298
297.66095 49.745216 69.371994
301.90936 50.001461 72.400307
-0.3104248 65.273994 60.075085
4.5004115 68.191544 60.236427
29.320923 71.399124 60.211945
66.694817 68.644379 60.178715
197.52403 70.103653 70.023354
202.08284 70.240692 69.99543
297.668 69.863998 69.133675
302.20187 71.549911 70.727936
4.134666 83.62088 60.203125
31.101126 88.286263 60.111923
73.812859 84.17601 60.290882
197.62433 89.715385 70.339462
202.87073 90.918449 69.744881
230.32509 99.998642 69.675171
250.00026 99.998634 69.675171
269.67548 99.998611 69.675171
297.33044 90.058197 69.320496
302.37256 91.062294 70.613365
198.15379 100.31079 71.806496
210.8499 100.3383 70.126488
229.85089 100.33691 69.863663
250.00107 100.331 69.267014
270.14972 100.33637 69.86425
289.25327 100.33736 70.040298
301.96979 100.3003 72.140877
197.83871 9.0367851 90.192879
209.02863 4.96176 91.776436
230.05164 4.2107902 92.660202
250.23297 3.699846 91.957932
270.15567 3.9530931 92.316849
291.73441 5.5498018 91.165009
301.82379 8.4368677 89.703857
197.8334 29.76544 90.505493
207.54254 30.259411 94.932816
230.0392 29.779503 97.832367
250.71896 30.544079 97.812263
270.6785 30.220707 97.909164
293.71945 29.912712 93.544014
301.57437 29.444172 89.547401
197.81355 50.131138 90.389053
207.92131 50.179203 94.726006
230.57231 50.053555 97.843208
250.9455 49.929482 98.046822
270.78635 50.12262 97.909424
293.9646 49.750805 93.137764
301.64908 49.785244 91.526321
197.84282 70.093925 90.538818
207.58226 70.04995 94.901291
230.18062 70.325645 97.860512
250.81271 69.531532 97.810509
270.53207 69.948639 97.907494
293.59073 70.146225 93.46862
301.44342 70.364555 90.318359
197.72568 90.00425 90.205589
207.4332 90.294121 94.727776
230.07524 90.104317 97.470894
250.74159 90.671158 97.487549
270.40393 90.258888 97.557846
293.95847 90.434677 92.895638
301.7627 90.584633 89.063591
197.9097 100.29379 89.713654
210.60435 100.32289 89.179764
229.70767 100.33362 89.620247
250.10703 100.32655 88.705063
270.56754 100.32658 89.632301
289.58502 100.32277 89.404839
302.22003 100.34539 89.656876
197.86758 9.5908766 102.19782
210.46068 8.9533615 102.07893
230.18817 9.7035313 102.27501
249.88898 9.0236282 101.91145
268.94733 8.8724918 102.1916
289.10046 9.3145313 102.08618
302.29105 7.9923401 102.02229
197.81583 29.115026 102.38891
210.34473 29.774294 102.15427
230.15211 30.624151 102.36827
250.36487 30.36227 102.1917
269.04541 29.804556 102.29567
288.85745 30.557457 102.19799
302.48611 31.329086 102.22751
197.39909 49.880371 102.35263
210.83879 49.846771 102.0859
230.2894 50.183807 102.23359
250.53792 50.042221 102.06972
268.88153 49.846317 102.15042
288.74881 50.164005 102.15909
302.74713 49.64209 103.05923
197.55504 70.43454 102.12678
210.0016 70.334602 102.14266
229.96364 69.734695 102.3369
250.30193 69.677261 102.14202
268.9874 70.062439 102.24218
288.70645 69.660858 102.20358
301.96194 68.116837 102.58021
197.94382 89.389847 102.1442
210.39885 90.489693 102.25317
230.38399 89.933556 102.31124
250.24881 89.957016 102.11124
268.93204 89.983032 102.355
289.12097 90.004745 102.24868
302.34671 90.833771 101.52939
198.82605 100.3782 101.58761
211.85068 100.35418 101.80244
228.78986 100.32227 101.99498
250.07996 100.34301 101.11443
271.54172 100.37264 101.63559
292.67923 100.31186 101.73314
302.20813 100.19112 101.56964
