# .PCD v0.7 - Point Cloud Data file format
VERSION 0.7
FIELDS x y z
SIZE 4 4 4
TYPE F F F
COUNT 1 1 1
WIDTH 1607
HEIGHT 1
VIEWPOINT 0 0 0 1 0 0 0
POINTS 1607
DATA ascii
302.17117 84.963791 -2.2791479
197.52213 96.772263 -1.3034379
205.00343 95.476364 -2.1213014
215.51724 95.225021 -2.1313834
226.08498 95.275917 -2.2936332
235.79703 95.401077 -2.3525639
244.69226 95.142982 -2.170469
253.93159 95.204803 -1.9207925
264.52023 95.361443 -2.013483
274.75418 94.72084 -2.6025982
286.2464 95.000641 -2.4412854
294.37054 95.359489 -2.0741136
301.91522 94.92144 -1.9736773
197.79366 100.19033 -1.5698935
205.35437 100.30946 -2.1705334
214.21013 100.31119 -0.20283103
225.03766 100.38795 -1.4451889
234.32666 100.34342 -1.9623116
245.38022 100.3419 -1.2882615
254.46263 100.34257 -0.9406122
265.35306 100.28767 -2.8835714
274.93948 100.34363 -1.4302913
282.44684 100.31396 -1.7723134
294.80127 100.40064 -1.8371533
301.17514 100.37678 -1.5867643
198.22638 2.892962 4.1539054
204.3112 2.7041292 5.1085486
214.24886 1.9296906 4.3973684
224.9493 1.9690986 4.0988336
234.35069 2.1904709 3.8632863
244.77991 1.832545 4.0312166
254.41373 1.9887567 3.9245136
264.88974 2.1677659 3.7799103
275.43921 2.0638118 3.9922969
285.70947 2.091264 4.0948644
295.52164 2.3586686 4.6399407
302.49719 3.770402 5.2650437
198.6235 15.343821 3.6419303
203.27138 15.008384 4.3773665
214.28664 14.820076 2.2270133
225.17084 15.353644 2.0626557
234.13966 15.549422 1.9424822
243.64197 14.754212 2.0371053
253.74463 15.401592 1.8286964
264.23093 14.84814 2.2205052
275.20615 15.063557 2.1618176
285.80933 15.068674 1.9014548
296.59851 15.189699 2.8517196
302.61652 15.015357 5.6675863
198.41521 24.441151 3.9268692
203.50316 24.93231 4.3436203
214.27101 24.404255 2.2364261
224.79274 25.043829 2.289356
233.46347 25.252491 1.8964763
243.71124 25.429087 2.3099277
254.00215 25.858391 2.1762183
264.60358 24.864634 2.238677
275.19244 25.348717 2.3262711
285.7063 24.335228 2.2576156
296.71866 25.626049 3.2025032
302.62531 25.476677 5.6094298
198.70285 35.607025 3.7234285
203.46098 34.68338 4.4264345
213.99921 34.104248 2.0586815
225.58205 34.993271 2.1725986
233.10036 34.834091 2.0177724
243.54156 35.759159 2.1057789
253.64665 35.651386 2.1464982
264.50653 34.3382 2.0420589
275.00278 34.390957 2.0633154
285.47809 34.759674 2.2353687
296.85934 35.626976 3.4008706
302.60507 34.884735 5.4314079
198.45055 44.315788 4.5671382
203.16577 44.377895 4.4483838
213.983 44.615582 1.9993925
224.84836 44.676994 2.2006288
233.47034 44.260857 1.8199008
243.65221 44.621777 2.0287809
253.65538 45.3395 1.9120131
264.44205 43.915009 2.2331417
274.34616 44.336674 2.0636673
285.22812 44.821514 1.9295939
297.17343 44.859203 3.215822
302.72507 44.277225 5.8695378
198.71356 54.809624 4.7862449
203.15031 54.810181 4.3169479
214.0466 54.565388 1.9020346
224.89586 54.956028 2.2168639
233.23969 54.997646 2.1024888
243.78526 54.507881 2.0947702
253.745 54.559811 1.8110162
264.62885 54.752163 2.292882
275.09354 55.411583 2.0134392
285.0834 54.951084 2.0729334
296.65781 54.857864 3.0226848
302.61499 55.084225 6.0200248
198.78571 65.223579 4.2890611
203.07722 65.265091 4.333684
213.57404 65.028404 2.1338143
225.35738 64.890617 2.1195185
232.98802 65.035011 2.039644
243.67476 63.686703 2.1600626
253.57497 64.125641 2.3020706
264.55545 65.557259 2.0769079
274.86984 66.073326 2.0667017
285.68811 64.983513 2.1863625
296.97754 64.513763 3.3490326
302.37509 65.083694 5.5451469
198.62987 77.127281 4.7401171
203.46898 75.078575 4.388463
214.29482 74.978073 2.1111696
225.33643 74.394646 2.2606118
233.42122 74.554924 1.9639884
243.20247 73.491974 2.2085013
253.4852 74.161049 2.1008527
264.64682 74.314018 2.2364004
275.02216 74.607033 2.1644199
285.85104 74.953186 2.0761662
296.79657 73.837646 2.8732986
302.58911 74.422806 5.9856548
198.48032 85.689636 5.4598126
202.81516 85.325989 4.4589744
214.14258 85.539299 1.8829716
225.27298 85.151001 2.1183212
234.05681 84.723198 1.5458831
243.5247 85.322014 1.9874954
253.94055 85.518837 1.6939621
264.14932 85.210228 2.0801363
275.15619 85.002823 2.0719512
285.78333 85.141441 1.6702266
296.61594 85.066071 2.6183383
302.60895 85.439194 5.7088675
198.7494 95.101036 4.6727552
203.5945 95.635757 4.4055262
214.2578 95.804024 2.1535571
225.27376 95.419785 2.2458532
233.69133 95.459511 2.2127347
244.23184 96.008965 2.1418667
253.75507 96.053635 2.1021461
264.49426 95.447723 2.2165473
275.05164 95.392426 2.4141657
285.78577 95.790787 2.1525428
296.65335 95.850044 3.1120629
302.59763 95.741638 5.541718
198.73206 100.43116 5.7513814
205.1198 100.34226 5.7749376
214.35851 100.31145 5.3510108
224.64992 100.33049 4.9572177
234.52341 100.30995 5.1138282
244.32193 100.34125 5.3518314
255.28076 100.32471 5.6517024
264.98965 100.32379 4.9407706
275.41937 100.34716 5.1528373
285.15189 100.33296 5.2608242
294.21445 100.32738 5.6390262
302.54269 100.2699 4.704442
198.02744 3.7396455 13.791477
203.93567 1.9783502 15.57195
215.17773 0.29855072 14.877467
225.60294 0.31040508 14.893693
235.07504 0.32716182 15.048509
244.69858 0.30531764 15.502707
254.79367 0.29792088 15.499987
264.92557 0.32705906 15.048412
274.39642 0.31041962 14.892579
284.82288 0.29830807 14.877794
295.83597 1.69064 15.244159
301.80814 3.216738 13.879873
198.09587 14.217845 14.325351
201.69098 15.499086 15.588923
298.17807 14.568276 15.203011
301.70428 14.306592 14.821262
198.49374 25.285814 14.232976
201.75385 25.7334 15.652631
298.19861 24.430897 15.198101
301.58179 25.502129 13.953758
198.15968 34.998051 14.038699
201.66283 34.94722 15.583877
298.37592 34.564079 15.372713
301.75284 35.156582 14.000974
198.17506 45.613468 13.924226
201.67404 44.096081 15.641315
298.3432 44.396484 15.136002
301.50296 44.850014 14.195781
197.85265 55.372486 13.147135
201.67062 54.607357 15.577703
298.41757 55.244469 14.991929
301.63297 54.856075 14.424166
198.48134 64.824623 14.554899
201.51228 64.988983 15.250861
298.586 66.108101 15.082893
301.70297 65.42659 14.010752
198.33844 75.264771 14.479098
201.71153 74.076462 15.477922
298.35065 75.312798 14.538031
301.77274 74.965378 14.194344
198.00964 85.270485 14.439588
201.55301 84.79789 15.514026
298.2886 85.30233 15.005683
301.93076 85.390938 14.705596
198.03694 95.124405 13.831007
201.92857 95.516907 16.045229
214.58496 99.998657 14.584686
226.39003 99.99865 14.584686
234.26015 99.998634 14.584686
242.13019 99.998657 14.584686
253.9353 99.998627 14.584686
265.74042 99.998627 14.584686
273.6105 99.998581 14.584686
285.41559 99.998627 14.584686
297.95209 95.766335 14.853406
301.86398 95.895599 14.257519
197.42348 100.31381 12.062713
205.21426 100.31993 14.688152
215.05284 100.31915 14.683167
225.25333 100.32714 14.588313
234.96596 100.33522 15.108145
244.69626 100.32098 15.511621
254.92595 100.32265 15.407964
265.03549 100.33537 15.108309
274.7468 100.3279 14.586732
284.9476 100.31946 14.683636
294.93509 100.3143 14.578792
301.80313 100.30855 13.839045
197.55238 3.4587986 25.485355
204.52872 1.9714023 25.137953
215.36613 0.32962424 25.216459
225.37663 0.32665926 25.525131
235.01514 0.32283333 24.749359
244.32127 0.31530035 25.133968
255.31143 0.31274253 25.219248
265.07257 0.31965277 24.71257
274.62454 0.32661361 25.52623
284.63541 0.32927576 25.217283
295.38544 1.6004403 25.326307
302.32404 4.1157112 23.492498
197.74992 15.003996 26.174099
202.01686 15.163382 24.834784
298.21753 15.524668 25.981243
302.24728 15.413007 23.899092
197.59091 24.472137 26.372032
202.07957 25.081312 24.681175
297.86426 25.498821 26.348989
302.21979 25.414106 23.510801
197.39555 35.766922 26.545256
202.24759 34.168045 24.36776
298.04034 35.889015 26.4764
302.54416 35.038544 23.733675
197.80466 45.497528 27.037886
202.21025 44.18454 24.511929
298.03091 44.739002 25.923294
302.49213 45.05267 23.591442
197.75348 54.495979 24.316288
202.08742 54.535812 24.684509
298.5527 54.336487 26.02063
302.45938 55.046001 23.780184
197.40013 64.755905 27.368935
202.25108 65.644073 24.412907
297.92847 64.803986 25.517159
302.47879 64.944534 23.978687
197.67062 75.653893 26.545691
201.99643 74.767654 24.567297
298.02573 74.250389 26.694927
302.35657 74.674591 23.439571
197.70111 85.404976 26.3407
201.93213 84.856026 24.944569
297.96414 84.288918 26.132076
302.29599 84.68808 23.583393
197.39453 94.751213 25.247309
202.34801 95.637199 24.701775
214.58496 99.998657 26.389791
226.39003 99.99865 26.389791
234.26015 99.998634 26.389791
242.13019 99.998657 26.389791
253.9353 99.998634 26.389791
265.74042 99.998627 26.389791
273.6105 99.998581 26.389791
285.41559 99.998627 26.389791
297.49271 95.477875 25.492512
302.42276 95.121346 23.370932
198.47285 100.29778 26.083683
205.73317 100.32617 24.834312
215.04288 100.36021 25.443766
225.45074 100.3299 25.246258
235.36252 100.34044 24.464169
244.567 100.33028 25.169592
254.91165 100.33349 25.124796
264.63626 100.34081 24.461691
274.55066 100.33018 25.245691
284.95792 100.36022 25.444143
294.20233 100.32826 25.092155
301.36749 100.33809 24.850845
197.18417 3.9600949 33.277325
203.42651 2.2822492 34.862511
214.91769 0.3084228 34.904793
224.91742 0.34532255 35.111496
234.5782 0.3216407 34.808128
244.98488 0.32448477 34.690895
254.63414 0.32032695 34.685486
265.42133 0.3216691 34.808784
275.08368 0.34551173 35.114235
285.08344 0.30801392 34.905979
296.29623 2.0266173 34.369617
302.5058 4.1536188 34.475765
197.60757 14.455346 33.589268
202.44333 14.888397 35.332069
297.98029 14.996853 34.945183
302.32602 14.809049 34.956055
415.50912 19.442345 39.949471
426.53912 15.309158 39.772697
433.45337 17.286255 39.979462
464.2027 10.401695 39.980942
473.72623 11.57143 39.912811
495.57358 15.667997 39.644836
197.87721 24.548609 34.504574
202.71501 25.470055 35.57489
297.8588 24.248352 34.239574
302.54855 25.174147 34.703018
424.14581 26.138733 39.936684
434.53372 28.00737 39.950462
465.24185 21.468582 39.815628
474.49915 21.948837 39.85231
494.83682 24.45311 39.741192
197.90764 34.771992 34.126591
202.26248 35.38607 35.357964
298.20074 34.760689 34.445503
302.49203 35.311787 34.698845
417.3317 32.417282 39.901909
422.19983 39.922188 39.985413
435.61926 38.844048 39.919033
467.0816 33.694328 39.775871
472.53333 34.877468 39.890091
495.5546 35.008476 39.727943
198.73242 47.612625 33.118103
202.51834 44.548851 35.327705
298.81888 45.181496 34.751659
302.32318 44.720089 34.755577
419.18976 45.644966 39.853416
436.73056 49.808289 39.891384
468.60526 44.18486 39.899242
471.54779 49.052757 39.856491
493.12491 41.083344 39.936996
501.08362 45.794449 39.680557
199.61981 54.81913 33.858978
202.46767 54.735996 35.436352
298.96121 53.037457 34.386631
302.39975 55.029163 35.068886
372.69492 54.589691 39.978031
421.09589 59.14257 39.805687
468.88367 53.484825 39.77375
470.37665 50.021065 39.676445
494.19974 50.683971 39.726601
501.85617 53.844475 39.898251
199.11099 64.577477 34.555992
202.25616 64.476227 35.232307
297.97678 64.839005 34.242195
302.36383 64.840317 34.490055
437.86118 60.899124 39.865509
469.07681 62.81881 39.902855
471.5585 64.455673 39.68795
494.52014 60.950607 39.72049
500.31094 65.274002 39.924915
197.81114 75.51754 34.116314
202.64299 74.336975 35.242092
297.76807 74.809502 34.156429
302.65561 74.818748 34.924084
423.05139 72.918663 39.75901
439.01141 72.118965 39.841396
467.76782 76.667282 39.970196
473.51697 77.367157 39.649109
496.15332 73.018845 39.792286
197.77975 85.208977 34.174934
202.46367 85.406952 35.394016
297.96179 85.248016 35.599266
302.37827 85.32827 34.671719
426.18762 84.176025 39.709122
466.86511 88.412704 39.985477
472.97522 88.037239 39.695423
495.86581 83.620888 39.796875
197.74261 96.058098 33.18742
202.41794 95.431267 34.941513
214.58496 99.998657 34.259861
226.39003 99.99865 34.259861
234.26015 99.998634 34.259861
242.13019 99.998657 34.259861
253.9353 99.998634 34.259861
265.74042 99.998627 34.259861
273.6105 99.998581 34.259861
285.41559 99.998627 34.259861
297.40295 96.036125 34.214367
302.41107 95.028114 34.811176
197.03656 100.31003 31.85709
204.99823 100.33251 35.810497
214.50073 100.32584 34.992729
224.78899 100.35136 35.124516
234.54156 100.32156 34.993019
245.10451 100.33002 35.192009
254.65988 100.32993 35.264626
265.45917 100.32106 34.992252
275.21432 100.35132 35.128906
285.49994 100.32605 34.993111
294.82047 100.33248 35.324684
302.48495 100.27355 32.650631
197.54381 3.4119058 44.317429
204.75034 1.2134652 44.561508
215.14023 0.31757286 45.169193
225.01538 0.31060514 45.335373
234.86914 0.33475143 44.735176
244.54164 0.34281847 44.763515
255.03978 0.3433587 44.741142
265.07901 0.33114183 44.736233
274.76175 0.31203428 45.423626
284.99072 0.31300288 45.322754
295.39777 1.5142634 44.822716
301.72614 3.636812 44.682377
-1.3121059 14.486732 45.777267
4.9696469 13.652706 44.836468
14.75052 12.731134 45.22588
25.038952 13.197757 44.663017
34.953739 13.323173 45.162418
44.822567 13.284928 44.918644
54.876999 13.609533 45.327305
64.853806 13.262499 44.992378
74.843376 13.474751 45.108734
84.985519 12.805145 45.169987
94.619835 13.452773 45.287369
104.99142 13.410936 44.922089
115.03775 13.699913 45.267052
124.98908 13.329107 45.008305
135.26825 13.184476 44.993999
145.23076 13.039495 44.740498
155.13116 13.578141 45.57515
164.62154 14.822976 45.221073
173.05672 17.87356 45.380249
197.73929 13.643749 44.41396
201.95432 13.693285 44.393753
297.89627 14.577334 45.200871
301.68842 14.550375 45.239803
326.4425 17.929892 45.577206
335.18109 15.373942 46.299473
345.33859 13.579715 45.741241
355.01138 13.396552 46.263767
365.24817 13.400846 45.648689
375.19543 13.444024 45.818333
385.16815 13.179702 45.747494
394.89627 13.871181 46.301266
404.6915 13.200886 45.904552
414.92444 13.489431 45.81776
424.91251 13.526342 46.092991
434.99249 13.724191 46.04311
444.91095 13.179782 45.77953
455.15039 13.60674 46.118328
464.84198 13.868676 46.006996
475.09634 13.474311 45.985382
485.08255 13.246647 46.118816
495.39194 14.036488 46.381386
501.70657 14.732961 46.276211
-1.6352954 24.842314 46.050117
5.0615296 24.624435 44.77594
15.059804 24.253443 44.283585
25.217827 24.408251 44.461342
34.869026 25.030119 44.234848
45.357254 24.927702 44.327492
54.697868 25.167028 44.00301
64.666351 25.163916 44.373184
75.1539 24.742472 44.326771
84.760117 24.562601 44.813046
94.799866 25.10158 44.804512
104.73235 25.348341 44.150673
115.47088 25.598333 44.787617
124.92986 24.650719 44.508312
135.29477 24.61278 44.110329
145.15237 24.533945 44.393456
154.77213 25.081049 44.552616
164.49965 25.145576 43.911133
174.53922 24.739429 44.699215
183.17786 25.491526 44.52663
196.22485 25.049395 45.522186
202.04468 23.788691 44.861095
297.93231 24.394838 45.940292
301.95184 25.149439 44.4473
316.09305 26.282055 47.118858
325.01343 24.753622 46.295395
335.26047 25.397278 46.005322
345.08572 25.207539 45.741302
355.19019 25.089863 46.023762
365.32397 25.032017 45.668953
375.17004 24.667688 45.544525
384.48514 25.00606 45.180767
394.55151 25.386869 45.930473
404.71423 25.310701 45.23193
414.96991 24.972534 45.216728
425.20053 24.608147 45.942226
435.49219 24.827831 45.779232
445.20544 24.61768 45.293198
455.21298 25.138002 45.671143
465.05161 25.104542 45.717258
474.74557 25.200434 45.788208
484.98523 24.225405 46.033497
495.25641 24.894447 46.252499
501.85123 24.602163 45.907982
-1.5250497 34.757774 46.028278
4.3670826 34.480049 44.448799
14.903818 35.077381 44.464722
24.801771 34.158733 44.347618
34.610287 35.152725 44.257439
44.920113 35.047703 44.32312
54.247166 35.277615 44.319096
64.444748 34.871437 44.697491
75.083076 34.202549 44.191509
84.706329 34.637089 44.919655
94.611671 34.90078 44.79398
104.80541 35.723839 44.089264
115.4539 35.190838 44.624474
124.92126 34.633064 44.655254
135.18155 34.463795 44.163422
145.25089 34.766354 44.325298
154.54182 35.054253 44.116093
164.66315 34.917839 43.98312
173.87181 35.213997 44.229935
184.25476 35.458858 43.790974
195.24666 34.321331 43.636818
201.37112 34.237507 44.395626
298.22446 33.866909 45.996288
304.63031 35.010517 46.289631
316.34235 34.763882 46.68988
325.07968 35.11076 46.128365
334.76437 35.021713 46.360996
344.8884 35.320686 45.605957
355.10303 35.172604 46.099514
365.20248 34.974846 46.039448
375.13776 34.847626 45.306122
384.49902 34.814896 45.28323
394.84506 35.300713 45.8568
405.1557 35.796635 45.273521
414.61227 34.430779 45.60918
424.99918 34.531536 45.701454
435.3288 34.571075 45.634453
445.57455 34.952579 45.450787
455.81882 35.178711 45.501163
464.88458 35.163395 46.109261
474.60666 34.806973 45.458778
484.73172 34.617855 45.955582
495.56332 34.942062 46.367767
501.99017 34.393879 45.696182
-1.6803887 44.762012 46.297298
4.5038757 44.562828 44.403027
14.749585 44.72163 44.487667
24.861982 44.49519 44.383598
34.684071 44.677666 44.324223
44.737457 44.993542 44.505203
54.545765 44.414833 44.027088
64.98774 44.568275 44.456898
75.387268 44.302967 44.175739
84.982887 44.29995 44.852928
94.385162 44.776524 44.710629
105.05582 44.821861 44.262783
115.24089 44.566441 44.63229
124.75935 44.520817 44.350632
135.05875 44.473843 44.457478
145.11803 44.567673 44.214825
154.97443 44.984035 44.240299
164.22073 44.794445 43.890202
173.82809 44.472767 44.072834
183.95471 44.855751 43.405449
195.20792 44.335384 42.896515
201.10048 43.733658 43.727901
299.75473 42.75938 41.983509
304.86215 44.81649 45.732075
316.23846 44.320744 46.94331
324.9928 44.417973 46.534058
334.62 44.545074 46.297337
344.92532 44.649094 45.666897
355.11697 44.808151 45.824814
365.57855 44.54789 45.814724
375.16937 44.447147 45.106544
384.28592 44.778011 45.753494
394.9006 44.434113 45.877666
405.24298 45.165977 45.307663
414.96509 44.422977 45.233452
424.81461 44.541477 45.828884
435.4017 44.383781 45.672108
446.01096 44.53297 45.461292
456.09662 44.499165 45.477043
464.91312 44.907867 46.062355
474.41815 44.16354 45.525887
484.10376 44.998207 45.912273
495.20749 44.916382 46.160728
502.33835 44.120808 45.801025
-1.4342067 54.796638 45.76025
4.2902918 54.800282 44.443512
14.491087 54.848705 44.379372
24.814983 54.752434 44.482193
34.66391 55.128902 44.337494
44.567013 54.309132 44.325459
54.519093 55.096039 43.991581
64.67067 54.648846 44.340759
75.24437 55.062248 43.870754
85.036224 54.894306 44.904816
94.630363 54.749477 44.680676
105.12495 54.559959 44.319736
115.42978 54.882454 44.580818
124.66964 54.723183 44.208626
135.10023 54.951775 44.390842
145.48412 54.85363 44.201988
154.91617 54.418823 44.197411
164.28084 54.699772 43.817986
173.94977 54.945072 43.918274
184.19891 54.580109 43.419739
194.83757 55.058964 42.946365
201.0497 54.75856 43.34523
299.82861 53.462635 42.07394
305.15045 54.931049 45.742172
316.11499 54.761417 46.958202
325.05347 54.99506 46.467354
334.57108 54.491493 46.405472
344.75104 54.934498 45.456635
355.30493 54.578743 45.801834
365.71423 54.763588 45.973667
375.38681 54.836967 45.360676
384.15533 54.894112 45.789124
394.7413 54.861931 45.709553
405.39969 54.518013 45.67606
414.84045 54.921089 45.264851
424.92474 54.809376 45.787598
435.5527 55.17989 45.655537
445.86093 54.772793 45.514751
455.99783 54.880424 45.480316
465.19028 55.116444 46.01466
474.35635 55.014751 45.460316
484.49542 54.938671 45.707855
495.16531 55.011856 46.172085
502.16702 54.873627 46.152397
-1.6297487 65.419983 46.092918
4.3350716 65.454819 44.436073
14.757863 64.864441 44.322216
24.709015 65.6315 44.527061
34.561531 64.934212 44.350731
45.057095 64.496574 44.463017
54.258686 64.644989 44.214863
64.51429 64.995041 44.780128
75.022797 65.498093 44.186756
84.600754 65.433189 44.883778
94.546516 65.118378 44.810314
104.97071 64.291237 44.058414
115.61357 64.821884 44.670223
124.93561 64.987953 44.8801
135.14452 65.222755 44.074055
145.55939 65.255867 44.426537
154.81117 64.475349 44.021767
164.78229 65.020805 44.05204
173.86292 64.870895 44.19194
184.29211 64.691879 43.660156
195.50873 65.69165 43.503262
201.38483 66.034348 44.469799
298.10876 66.327744 46.028069
304.4975 65.042122 46.046432
316.27359 65.066704 46.735168
325.22797 64.802376 46.232742
334.91733 64.951622 46.367638
345.00424 64.858856 45.793583
355.16766 64.974159 46.175655
364.87311 65.078468 45.879135
375.12643 65.043259 45.293652
384.75818 64.961769 45.41605
394.89859 64.689133 45.871902
405.28244 64.180077 45.149265
414.92496 65.552193 45.283699
425.04211 65.323349 45.91473
435.26755 65.406898 45.648365
445.63571 65.209679 45.597572
455.76459 64.998055 45.630306
464.84225 65.002823 45.981083
474.56821 64.909637 45.412937
484.53696 65.31102 45.997555
495.64081 64.890251 46.43206
502.31265 66.09655 45.716591
-1.6187725 75.673225 45.980129
4.826654 75.305283 44.511284
14.804514 75.421936 44.35817
25.365551 75.536194 44.351837
35.07209 74.894135 44.170017
45.390282 75.125687 44.39975
54.76379 74.770424 43.982853
64.561638 74.910721 44.376816
75.00164 75.211235 43.915653
84.867928 75.351707 45.011833
94.864677 75.076378 44.786381
104.76881 74.236977 44.228397
115.23686 74.486618 44.493591
124.78279 74.88578 44.561462
135.37778 75.300629 44.04475
145.09702 75.349541 44.310688
154.77867 75.137589 44.4174
164.52316 74.721375 44.050423
174.2415 75.053925 44.940624
183.2429 74.544151 44.549667
195.62747 74.410286 45.919071
201.99368 75.554176 44.352444
297.94675 74.409584 46.342903
302.54797 74.813423 44.383266
315.90826 73.78875 46.900635
325.13553 75.234215 46.370823
335.26352 74.53009 46.097691
344.92117 74.794258 45.592659
354.96228 75.018776 45.764828
365.3858 75.075783 46.018593
375.09955 75.168106 45.395748
384.61972 74.87104 45.329884
394.61435 74.357475 45.916985
404.61349 74.409981 45.280239
414.91833 75.565712 45.450912
425.02975 75.04026 45.940113
435.58084 75.24826 45.83297
445.34225 75.642975 45.178085
455.33572 74.794037 45.903423
465.13724 74.982765 45.723133
475.04623 74.595871 45.897217
485.03961 75.788712 45.816463
495.21432 75.132767 46.34267
501.98349 75.141258 46.172043
-1.2667738 85.229973 45.91325
4.4211221 84.890091 44.596336
14.917069 85.383209 44.411736
24.939838 85.566696 44.06889
34.72604 85.119843 44.404209
44.747169 85.268929 44.31443
54.851021 84.522186 44.53775
64.76709 85.179268 44.537426
75.007668 84.71373 44.516224
84.981712 85.123428 44.595322
94.38942 85.17524 44.661652
105.09397 84.93856 44.188278
114.99847 84.617699 44.677101
124.90569 84.958916 44.484848
135.20963 85.653137 44.490841
145.56087 85.530861 44.0312
155.08586 85.210831 45.021751
164.57475 85.311562 44.823479
173.38129 82.156334 45.044422
197.53831 86.379845 44.854237
201.81059 85.855827 44.122082
298.07562 85.691277 46.106979
301.93842 85.279312 44.518185
325.72574 82.422073 46.621052
334.91739 84.571846 46.277954
344.94818 84.60125 45.593906
354.80896 85.34465 46.072598
365.21454 85.344124 45.515266
375.26224 85.165794 45.278477
384.54321 85.195717 45.470558
394.75534 84.755928 45.759808
404.64532 85.022041 45.474922
414.49277 85.22699 45.442047
424.79309 84.94503 45.798214
435.21851 85.126717 45.853275
445.11282 85.260971 45.087704
454.89597 84.829239 45.597031
464.49832 84.65403 45.852871
474.78159 85.185196 45.703388
484.77924 85.380463 46.101032
495.7518 85.389542 46.436497
501.47537 84.867432 46.14296
-1.3457061 90.342476 47.311764
6.0712051 90.307915 45.891521
15.117634 90.304413 46.215576
25.248398 90.295975 45.40567
34.557018 90.293571 46.21859
44.765549 90.302948 45.925941
54.997093 90.321121 46.48402
65.547302 90.307343 45.899174
75.428696 90.306732 45.822018
85.240265 90.278458 45.75708
95.416725 90.32341 46.263687
104.7253 90.309937 46.662193
114.00726 90.304161 45.807667
125.29998 90.309425 45.975388
135.08171 90.3246 46.237034
144.7045 90.310989 46.428898
155.2674 90.323868 46.851494
161.2663 90.386505 45.27924
197.32245 95.503571 44.314163
202.11182 96.139107 44.825085
214.58496 99.998657 42.129929
226.39003 99.99865 42.129929
234.26015 99.998634 42.129929
242.13019 99.998657 42.129929
253.9353 99.998634 42.129929
265.74042 99.998627 42.129929
273.6105 99.998581 42.129929
285.41559 99.998627 42.129929
297.50397 96.249313 45.673901
301.85886 95.347618 44.672787
337.20886 90.199173 45.97821
345.5444 90.309219 46.235203
355.57993 90.329361 46.760307
364.89737 90.335457 46.441792
375.09665 90.343193 46.680248
385.65857 90.353523 46.242188
395.04449 90.311943 46.917728
404.57159 90.305153 46.045448
414.88284 90.338226 46.763527
424.9574 90.324791 46.564526
434.4386 90.331024 46.025841
444.83826 90.316574 46.656322
455.2778 90.33358 46.944378
464.8699 90.345695 46.135857
475.16147 90.317398 46.443092
484.72168 90.334816 46.733429
493.44055 90.29705 46.412865
501.82416 90.280235 45.342945
198.89061 100.33532 44.620258
205.80873 100.35206 44.759632
215.04556 100.32031 45.356453
224.75381 100.32397 45.484402
234.88205 100.33691 44.917675
244.63263 100.35098 45.074863
254.97707 100.35334 45.061394
265.01266 100.33637 44.981983
275.00348 100.32288 45.483292
284.96802 100.3183 45.523865
294.4437 100.34492 44.964539
302.0575 100.262 44.258999
198.27486 3.6368029 55.31715
204.55862 1.4779769 55.147419
214.99675 0.30408296 54.533218
225.26039 0.3064045 54.490116
234.88945 0.3245751 55.087868
244.55463 0.34288239 55.161747
255.05429 0.32961032 55.116875
265.16055 0.32804209 55.089333
274.95837 0.30446255 54.575073
284.87805 0.30762857 54.677113
295.2244 1.2291902 55.406807
302.45694 3.4121432 55.682255
-1.5842913 14.810585 53.458488
4.695292 13.953437 53.657799
14.929912 13.116801 53.719971
24.931122 13.434506 53.968895
35.160614 13.826916 53.950493
44.82988 13.562668 53.834709
55.03286 13.071855 54.074692
65.031326 13.682508 53.912956
75.057373 13.448442 53.817528
85.054375 13.454721 54.139431
95.292404 13.156804 54.02396
105.11874 13.869999 53.697498
114.83224 13.14393 54.2048
124.83127 13.317679 54.163284
134.73204 13.281281 54.194031
145.0097 13.32229 53.65028
154.66193 13.535082 54.204823
164.8546 15.415719 53.576618
173.55533 17.93387 54.424622
198.31229 14.55059 54.760094
202.10405 14.57752 54.799007
298.04703 13.69348 55.606136
302.26099 13.643737 55.586044
326.87637 17.731573 54.291973
335.4079 14.75374 54.713345
344.87662 13.533159 54.371628
354.75549 12.97306 55.142269
364.76694 13.076088 54.833641
375.03629 13.289884 54.936237
384.9653 13.657267 54.678665
394.99683 13.409232 55.078392
405.37387 13.374374 54.606781
415.03586 12.774469 54.778656
425.17972 13.40649 54.79171
435.12265 13.226614 54.954174
445.17081 13.491266 54.518776
455.1951 13.249618 55.026093
465.09467 13.302669 54.827602
474.99139 13.145443 55.240849
485.23099 12.624409 54.577484
495.14111 13.701065 55.186729
501.40958 14.387183 54.075504
-1.7669129 24.626324 53.90691
4.8051353 24.890833 53.796558
15.014701 24.225338 53.966698
25.254391 25.199903 54.211964
34.948891 25.104523 54.282719
44.786804 25.137686 54.329487
54.794968 24.617937 54.707104
64.506783 24.828115 54.221279
74.800751 24.60841 54.057293
85.030045 24.972853 54.783714
95.285881 25.310022 54.767792
105.44897 25.387829 54.068958
115.51501 25.005564 54.819141
124.75446 24.58411 54.399872
134.67528 25.033226 54.331367
144.80974 25.089415 53.975746
154.91776 25.208374 54.256882
164.73952 25.397774 53.994152
175.03716 24.732538 53.624699
183.95345 26.368357 52.773666
198.04854 25.149185 55.553169
202.06915 24.395596 54.059956
297.95648 23.788296 55.139172
303.86243 25.133957 54.346886
316.78122 25.446434 55.376228
325.46188 24.738634 55.300587
335.50101 25.14365 56.089855
345.22849 25.081537 55.448551
354.8515 24.532246 55.607948
364.7052 24.612484 55.889591
375.06979 24.65065 55.492287
384.52826 25.598745 55.212696
395.26935 25.346558 55.850681
405.19989 25.10087 55.196011
415.2413 24.56212 55.187141
424.84515 24.742025 55.67366
435.33405 25.162848 55.627865
445.30322 25.167007 55.997288
454.64191 24.928232 55.672615
465.13141 25.029926 55.765675
474.78159 24.408226 55.538967
484.94034 24.253986 55.71666
495.01416 24.632524 55.238647
501.7012 24.830111 53.859398
-1.7804947 34.401031 53.851593
4.5433621 34.95348 53.719875
15.268643 34.617245 54.045074
25.393307 34.806271 54.54174
35.115795 35.162979 53.891247
44.180882 35.17841 54.499161
54.425472 34.951958 54.549076
64.671127 34.571198 54.365444
75.001114 34.531269 54.298561
85.388275 34.430916 54.391075
94.844139 35.795631 54.726246
105.15525 35.300343 54.142784
115.50183 34.815212 54.716866
124.86242 34.847614 54.693722
134.79222 34.876575 53.992973
144.89772 35.17308 53.900253
155.11546 35.320965 54.393631
165.23639 35.02198 53.639194
174.9207 35.109627 53.871758
183.6588 34.763134 53.310364
195.32384 34.981239 53.638977
201.77663 33.866615 54.004116
298.64447 34.145298 55.230843
304.75449 34.320129 56.360825
315.74564 35.457863 56.209187
326.12863 35.215061 55.770081
335.33743 34.916924 56.016472
345.45978 35.054142 55.884628
354.75131 34.76569 55.675552
364.81744 34.465565 55.83654
375.07941 34.630531 55.345978
384.54599 35.191761 55.374859
395.19797 35.722279 55.91143
405.38791 34.901684 55.206722
415.29388 34.636765 55.081566
424.91681 34.202644 55.809025
435.55585 34.871365 55.302696
445.75378 35.278004 55.680958
455.0795 35.047924 55.677544
465.39044 35.152496 55.743355
475.19778 34.158718 55.652996
485.09619 35.077614 55.535595
495.77173 34.479759 55.572006
501.64709 34.780369 53.792809
-2.2324138 44.105465 54.007179
4.8555837 44.931065 53.890297
15.89646 44.997814 54.088139
25.581881 44.163292 54.473976
35.087078 44.907303 53.938225
43.903496 44.498737 54.523106
53.989662 44.532505 54.539276
64.598473 44.383347 54.328598
75.185699 44.540859 54.171768
85.0355 44.423115 54.76659
94.757416 45.165104 54.692707
105.1008 44.434464 54.122585
115.71446 44.777317 54.246925
124.8307 44.447861 54.893124
134.43469 44.456844 54.147392
144.88339 44.807983 54.175156
155.07655 44.648266 54.333309
165.38025 44.54631 53.702194
175.00694 44.417278 53.466068
183.76363 44.322277 53.056656
195.13867 44.816704 54.267597
200.24524 42.761261 58.016479
298.90036 43.73341 56.272442
304.79291 44.33474 57.103973
316.04593 44.855801 56.594433
326.17206 44.47374 55.927124
335.77954 44.792343 56.110435
345.02637 44.984798 55.759438
354.884 44.566429 55.785423
364.94138 44.474098 55.543327
375.24048 44.519112 55.65015
384.75906 44.567608 55.367012
394.94519 44.820705 55.737499
405.61456 44.77607 55.290718
415.01865 44.299843 55.147358
424.61206 44.303902 55.824356
435.01337 44.567242 55.544231
445.45511 44.415062 55.972534
455.26215 44.993664 55.495388
465.31662 44.67778 55.675629
475.13779 44.495205 55.616791
485.25027 44.721577 55.513088
495.57132 44.549877 55.607101
501.75696 44.805855 53.588745
-2.0273516 54.759525 53.598415
4.9601121 55.061195 53.927525
15.504759 54.938538 54.292675
25.643578 55.014603 54.539959
34.809837 55.116455 53.985737
44.002094 54.880157 54.520046
54.139553 54.77232 54.485676
64.44751 55.179569 54.345093
75.07547 54.809212 54.212997
85.159912 54.920609 54.735222
94.571281 54.460098 54.239803
105.25879 54.861969 54.290333
115.84529 54.893986 54.211056
124.61339 54.837181 54.639923
134.28606 54.762779 54.026711
144.6953 54.579079 54.197685
155.25035 54.934994 54.543056
165.42928 54.490414 53.594818
174.94568 54.994461 53.533283
183.88544 54.761486 53.042812
194.8506 54.930798 54.257545
200.17072 53.46336 57.926056
298.95111 54.758522 56.6553
305.16248 55.058601 57.053364
315.80157 54.579628 56.580059
326.05014 54.945648 56.081257
335.72043 54.698521 56.181999
345.0842 54.418186 55.803253
354.51825 54.852665 55.798721
364.89975 54.952053 55.609112
375.33047 54.722839 55.791153
384.57053 54.883274 55.419216
394.87613 54.558716 55.681061
405.39322 54.698841 55.233868
414.96426 54.893509 55.095871
424.75522 55.06263 56.129124
435.32971 54.648499 55.659267
445.48148 55.095741 56.008499
455.43228 54.309696 55.674709
465.33737 55.128563 55.663383
475.18478 54.752434 55.517986
485.50897 54.849049 55.621021
495.84174 54.748032 55.576302
501.54407 54.926548 54.088577
-2.0553792 66.034203 53.806774
4.4628563 64.874817 53.653408
15.463245 65.310921 54.002979
25.431709 64.909615 54.587093
35.157284 65.002541 54.018993
44.236008 64.997658 54.370113
54.364624 65.209442 54.402962
64.732605 65.406494 54.352077
74.957733 65.323235 54.085663
85.075188 65.551949 54.716339
94.717812 64.17984 54.850979
105.10191 64.688583 54.128448
115.24232 64.961533 54.584061
124.87356 65.04335 54.706562
135.12679 65.078835 54.120625
144.83327 64.974129 53.823902
154.99756 64.858749 54.206398
165.08299 64.95163 53.632404
174.77182 64.801773 53.767574
183.72658 65.066475 53.266483
195.50256 65.041725 53.95364
201.83888 66.385757 53.687557
298.61633 66.034607 55.530964
304.54349 65.708282 56.364239
315.7084 64.691475 56.339577
326.13733 64.871071 55.807899
335.21805 65.020256 55.948112
345.1893 64.475433 55.97831
354.44202 65.255096 55.573273
364.85565 65.223343 55.925449
375.06393 64.987717 55.120304
384.38699 64.821648 55.32999
395.03076 64.290825 55.941963
405.45355 65.118881 55.189625
415.40012 65.432426 55.116978
424.97745 65.498283 55.813442
435.48669 64.99472 55.220089
445.74167 64.64518 55.785583
454.94269 64.496605 55.537243
465.43909 64.934052 55.649796
475.29071 65.631569 55.473137
485.24231 64.864349 55.678417
495.80051 65.45752 55.583958
501.75525 65.410942 53.729954
-1.8972265 75.128242 53.661556
4.8440542 75.136322 53.702415
14.960836 75.788567 54.184399
24.953432 74.595894 54.102909
34.862854 74.982483 54.277218
44.714584 74.874115 54.065365
54.658302 75.643265 54.822453
64.419403 75.247993 54.167683
74.970512 75.040161 54.060291
85.082207 75.565422 54.549866
95.386887 74.409668 54.720215
105.38622 74.356995 54.083717
115.38065 74.870461 54.670597
124.90082 75.167877 54.604599
134.61455 75.075485 53.981987
145.03796 75.018166 54.23518
155.07896 74.793388 54.407188
164.73697 74.530403 53.902519
174.86464 75.23391 53.629059
184.14471 73.904045 52.984226
197.31839 74.723953 55.434917
202.05363 74.410446 53.657337
298.00656 75.554001 55.647461
304.37302 74.410332 54.080978
316.72479 74.490311 55.355869
325.69449 75.079422 54.955139
335.4776 74.720467 55.949558
345.2218 75.137337 55.582775
354.9039 75.349403 55.689819
364.62231 75.300484 55.955055
375.21762 74.885872 55.438637
384.76349 74.486351 55.506329
395.23196 74.236649 55.771526
405.13516 75.076385 55.213764
415.1329 75.351372 54.988201
424.99844 75.211487 56.084736
435.43912 74.910339 55.623165
445.23627 74.770638 56.017097
454.60983 75.125671 55.600616
464.92883 74.893898 55.83012
474.63403 75.536362 55.648766
485.19528 75.422241 55.642155
495.25043 75.298378 55.500248
501.69458 75.711098 53.917061
-1.3571768 84.812088 53.548656
4.3714509 85.424934 53.667088
15.220761 85.380531 53.899323
25.218365 85.185287 54.296913
35.501873 84.654152 54.147636
45.054966 84.913582 54.444618
54.887424 85.260666 54.912373
64.78215 85.126198 54.147331
75.207207 84.945045 54.202347
85.507668 85.227211 54.558399
95.354881 85.021622 54.524876
105.26357 84.828896 54.292789
115.45753 85.195396 54.530025
124.73801 85.165474 54.721775
134.78612 85.344154 54.484798
145.19136 85.344498 53.927822
155.05202 84.600594 54.405525
165.03558 84.643066 53.66124
174.24873 82.571999 53.071583
198.06227 85.279007 55.481377
201.92485 85.69088 53.893017
298.18958 85.855537 55.87793
302.46231 86.379868 55.145996
326.61929 82.156387 54.955482
335.42059 85.309959 54.96056
344.91458 85.210609 54.977627
354.43997 85.530594 55.968655
364.79077 85.652878 55.508827
375.09488 84.958557 55.514946
385.00168 84.61776 55.322701
394.90668 84.938599 55.811878
405.61093 85.175522 55.338619
415.01871 85.1231 55.404705
424.99261 84.713989 55.483475
435.23346 85.179482 55.462292
445.14929 84.522118 55.462383
455.25262 85.268692 55.685974
465.27411 85.119904 55.596085
475.06042 85.56694 55.930962
485.08279 85.383163 55.58873
495.7193 84.867607 55.429279
501.37131 85.317001 53.91087
-1.8237119 90.280228 54.657059
6.5597539 90.297401 53.587368
15.32272 90.315071 53.085468
24.911264 90.30777 53.452538
35.011284 90.33622 53.643383
44.675507 90.323067 52.96019
55.161533 90.30027 53.172539
65.609474 90.320518 53.850304
75.042778 90.315834 53.345387
85.05648 90.328552 53.14378
95.433884 90.280045 53.571957
104.96718 90.311928 52.775101
114.35546 90.343376 53.647762
124.83641 90.333176 53.21616
135.07159 90.310783 53.294807
144.48709 90.318779 53.141972
154.45917 90.29911 53.63932
162.70055 90.133461 52.681187
198.14154 95.347519 55.327042
202.48415 96.093201 54.178211
214.58496 99.998657 53.935036
226.39003 99.99865 53.935036
234.26015 99.998634 53.935036
242.13019 99.998657 53.935036
253.9353 99.998634 53.935036
265.74042 99.998627 53.935036
273.6105 99.998581 53.935036
285.41559 99.998627 53.935036
297.83063 96.474846 55.067505
302.67841 95.504074 55.6856
338.73407 90.385582 54.719749
344.75467 90.313515 53.050217
355.23859 90.301834 53.463058
364.94373 90.305115 53.526508
374.7641 90.302284 53.924377
385.97107 90.296104 54.071514
395.21436 90.301651 53.242573
404.57751 90.298553 53.385052
414.81927 90.272026 54.131207
424.58127 90.299675 54.075756
434.41174 90.299446 53.989071
444.99673 90.307869 53.359371
455.27603 90.295013 53.96352
465.52148 90.288437 53.587978
474.69247 90.287651 54.463017
484.83679 90.290276 53.599739
493.99158 90.30172 54.010109
501.34613 90.342484 52.688232
197.94331 100.26273 55.741474
205.55734 100.34509 55.035355
215.03262 100.31878 54.475651
224.99707 100.32275 54.516716
234.97139 100.33492 54.928326
244.71788 100.35294 54.973278
255.06142 100.35161 54.892365
265.13406 100.33586 54.989437
275.24661 100.32385 54.515244
284.95502 100.3199 54.643532
294.19214 100.35197 55.239914
301.10995 100.33477 55.380058
197.49486 4.1532254 65.523895
203.69017 1.996991 65.632156
214.91689 0.30800453 65.094002
224.91615 0.3460376 64.885674
234.57895 0.32170039 65.191299
244.98599 0.32444426 65.309769
254.63518 0.320463 65.314049
265.42206 0.32141262 65.191833
275.08295 0.345382 64.888504
285.0831 0.30872342 65.095085
296.56555 2.3109155 65.129684
302.81628 3.959898 66.723236
4.4269085 15.667997 60.355164
26.27425 11.571423 60.087189
35.797813 10.401695 60.019062
66.540436 17.289429 60.018547
73.450714 15.308216 60.225788
84.474854 19.455643 60.047829
197.67482 14.809029 65.043877
202.0204 14.997004 65.054787
297.55704 14.888311 64.667641
302.39276 14.455068 66.410728
5.1636062 24.45311 60.258808
25.5014 21.948833 60.147697
34.758667 21.468575 60.18438
65.466812 28.00737 60.049553
75.854721 26.138733 60.063324
197.45195 25.173931 65.296883
202.14195 24.248558 65.760574
297.28522 25.469677 64.424904
302.12366 24.547895 65.49482
4.445879 35.008476 60.272053
27.467167 34.877464 60.109917
32.918934 33.694321 60.224136
64.387985 38.840744 60.082966
77.800659 39.922188 60.014595
82.657669 32.426392 60.096329
197.50858 35.312057 65.301308
201.79996 34.761452 65.554947
297.73816 35.386574 64.642021
302.09033 34.773895 65.873978
-1.0831184 45.794449 60.319458
6.8755426 41.083328 60.063011
28.452751 49.052757 60.143517
31.395247 44.184856 60.100765
63.276794 49.804848 60.110626
80.805061 45.649658 60.145775
197.67738 44.720181 65.244995
201.18187 45.182884 65.248734
297.48218 44.549091 64.672256
301.26904 47.612576 66.880775
-1.855648 53.844467 60.101749
5.8007164 50.683964 60.273399
29.623871 50.021065 60.32357
31.11684 53.484825 60.226265
78.904663 59.14257 60.194321
127.29507 54.599041 60.020157
197.60115 55.028984 64.931412
201.03888 53.038776 65.613609
297.53229 54.736298 64.563591
300.38068 54.819122 66.141022
-0.3104248 65.273994 60.075085
5.4802866 60.9506 60.279503
28.441992 64.455673 60.312061
30.923698 62.81881 60.097153
62.139336 60.899124 60.134506
197.6366 64.84005 65.51033
202.02405 64.839005 65.757278
297.74423 64.476547 64.767792
300.8902 64.578293 65.443832
3.8471613 73.018837 60.207706
26.486723 77.364578 60.351379
32.232666 76.667267 60.029804
60.995983 72.115334 60.160641
76.949135 72.918663 60.240997
197.34492 74.818748 65.075974
202.23213 74.810081 65.843414
297.35757 74.337143 64.75798
302.18921 75.518326 65.883598
4.134666 83.62088 60.203125
27.032623 88.033417 60.306732
33.135376 88.412689 60.014519
73.812859 84.17601 60.290882
197.62254 85.328316 65.32795
202.03928 85.247482 64.401031
297.53668 85.407036 64.605827
302.22095 85.209511 65.824715
197.58963 95.027534 65.188614
202.58952 95.864098 65.78717
214.58496 99.998657 65.740143
226.39003 99.99865 65.740143
234.26015 99.998634 65.740143
242.13019 99.998657 65.740143
253.9353 99.998634 65.740143
265.74042 99.998627 65.740143
273.6105 99.998581 65.740143
285.41559 99.998627 65.740143
297.57047 95.57869 65.079643
302.25781 96.058876 66.812263
197.51587 100.27502 67.350273
205.18001 100.33287 64.675362
214.50075 100.32606 65.006615
224.78644 100.35168 64.870514
234.54156 100.32139 65.007187
245.10794 100.33035 64.810867
254.66293 100.32962 64.731743
265.45932 100.32123 65.007332
275.21201 100.35106 64.875313
285.49994 100.32566 65.007317
295.00266 100.33262 64.189491
302.96344 100.30989 68.142944
197.67664 4.1158075 76.506935
204.58986 1.5793103 74.659538
215.36479 0.32979429 74.782631
225.37575 0.32709983 74.473709
234.92751 0.31985071 75.287468
244.22725 0.31919315 74.833542
255.21555 0.30957922 74.809441
264.98508 0.32306194 75.250488
274.62393 0.32651964 74.474632
284.63437 0.32980546 74.783279
295.4241 1.8916574 74.865089
302.44821 3.4588556 74.514778
197.75381 15.413209 76.100716
201.78268 15.525005 74.018456
297.96368 15.001488 75.187401
302.25055 15.003984 73.825966
197.78125 25.414255 76.488754
202.13663 25.498419 73.651268
297.92023 25.081366 75.318565
302.40976 24.471848 73.627258
197.45674 35.038311 76.265724
201.95992 35.888908 73.523422
297.75241 34.167599 75.631996
302.60437 35.76775 73.455002
197.50903 45.052448 76.408463
201.96892 44.741322 74.076218
297.78961 44.184589 75.487862
302.19565 45.498226 72.961403
197.54172 55.046036 76.219566
201.44801 54.337696 73.979332
297.91205 54.535942 75.31488
302.24734 54.49585 75.683304
197.52254 64.944496 76.020599
202.07181 64.804375 74.482025
297.74887 65.644394 75.586784
302.59949 64.755272 72.632172
197.64415 74.673981 76.559975
201.97514 74.251266 73.305099
298.00323 74.767899 75.432259
302.32947 75.654572 73.454193
197.70432 84.688072 76.41671
202.0365 84.288689 73.867943
298.06757 84.856651 75.054878
302.29913 85.405319 73.659126
197.5775 95.120796 76.629005
202.49423 95.262833 74.550163
214.58496 99.998657 73.610207
226.39003 99.99865 73.610207
234.26015 99.998634 73.610207
242.13019 99.998657 73.610207
253.9353 99.998634 73.610207
265.74042 99.998627 73.610207
273.6105 99.998581 73.610207
285.41559 99.998627 73.610207
297.63736 95.799004 75.236336
302.60571 94.752411 74.75309
198.63222 100.33762 75.148674
205.79837 100.32876 74.907639
215.04266 100.3603 74.55529
225.45016 100.33018 74.753723
235.36424 100.34109 75.538315
244.5668 100.32958 74.830559
254.91086 100.33443 74.874878
264.63873 100.34014 75.535362
274.55029 100.32983 74.753448
284.95779 100.35977 74.555832
294.26767 100.32623 75.16555
301.5282 100.29604 73.91774
198.19275 3.2167537 86.120308
204.12477 1.6428223 84.774529
215.17744 0.29903576 85.122162
225.60382 0.31150866 85.107452
235.07469 0.32759073 84.951653
244.69844 0.30538723 84.497238
254.79347 0.29802844 84.500214
264.92523 0.32734215 84.951668
274.39771 0.30989122 85.106331
284.82281 0.29862297 85.122147
296.0332 2.0321121 84.401062
301.97305 3.7397692 86.208153
198.29764 14.306961 85.178581
201.82307 14.56819 84.797127
298.3092 15.498739 84.410637
301.90424 14.218026 85.674431
198.41922 25.502464 86.046455
201.80154 24.430761 84.801331
298.2467 25.733086 84.347267
301.50739 25.28524 85.76683
198.2477 35.156296 85.999115
201.62392 34.564453 84.626831
298.33798 34.947277 84.416092
301.83975 34.998375 85.961655
198.49724 44.849934 85.804344
201.65746 44.397392 84.864304
298.32635 44.096039 84.358589
301.82599 45.614098 86.075638
198.36771 54.856125 85.575806
201.58351 55.245197 85.008522
298.32962 54.607426 84.421974
302.14734 55.37278 86.852875
198.2977 65.425789 85.988899
201.41455 66.108894 84.917213
298.48865 64.989632 84.749077
301.51849 64.824936 85.445091
198.228 74.964989 85.805344
201.64989 75.314026 85.462257
298.28894 74.076622 84.522072
301.66107 75.26442 85.521149
198.07007 85.390121 85.294136
201.71181 85.302757 84.994469
298.44754 84.798431 84.485962
301.99081 85.270706 85.56028
198.1371 95.895195 85.74189
201.97452 95.343277 85.119492
214.58496 99.998657 85.415314
226.39003 99.99865 85.415314
234.26015 99.998634 85.415314
242.13019 99.998657 85.415314
253.9353 99.998627 85.415314
265.74042 99.998627 85.415314
273.6105 99.998581 85.415314
285.41559 99.998627 85.415314
298.01517 95.815804 84.052277
301.96323 95.124794 86.168922
198.19731 100.30901 86.16153
205.06525 100.31475 85.420784
215.05316 100.32002 85.315613
225.25404 100.32795 85.412949
234.96506 100.33556 84.891037
244.69585 100.32115 84.487587
254.92548 100.32257 84.591545
265.03513 100.33507 84.891418
274.74756 100.32693 85.411682
284.94781 100.31889 85.316467
294.78687 100.31975 85.311905
302.57617 100.3139 87.93428
197.50293 3.7703328 94.735291
204.45737 2.3294148 95.383141
214.29056 2.0916135 95.905647
224.56096 2.0643177 96.007904
235.1102 2.1678023 96.219963
245.04259 2.0009322 95.872757
254.65448 1.8391809 96.157471
265.64984 2.1907916 96.136536
275.05115 1.9690297 95.90097
285.75177 1.9296366 95.602493
295.67239 2.7334566 94.865646
301.77402 2.8925242 95.846382
197.38417 15.015219 94.332527
203.40242 15.189322 97.147789
214.1913 15.068679 98.098335
224.7942 15.063136 97.838409
235.7692 14.848318 97.779617
245.6519 15.355704 97.903603
255.55441 14.82816 98.191803
266.04434 15.639327 98.101326
274.82922 15.353803 97.937218
285.71375 14.8198 97.772667
296.72861 15.007998 95.622177
301.37683 15.345243 96.357887
197.37544 25.476435 94.390327
203.28209 25.625828 96.797218
214.2942 24.334614 97.742325
224.80779 25.348795 97.673584
235.39635 24.864611 97.761337
245.56963 25.98457 97.604568
255.71736 25.36113 97.887924
266.53763 25.252625 98.102425
275.20764 25.043829 97.710197
285.729 24.404301 97.763557
296.49738 24.932564 95.656052
301.58539 24.438974 96.072815
197.39594 34.884884 94.568497
203.14119 35.626633 96.598999
214.52271 34.759445 97.764282
224.998 34.390903 97.936226
235.4938 34.338001 97.957787
245.88318 35.820431 97.603378
255.50185 35.549137 98.174911
266.90054 34.834324 97.981705
274.41803 34.992832 97.82724
286.00128 34.104149 97.940651
296.53955 34.68322 95.572914
301.2984 35.607697 96.276123
197.27557 44.27684 94.13076
202.82704 44.85923 96.784264
214.77234 44.821625 98.070595
225.65465 44.336662 97.9356
235.55814 43.915043 97.767014
245.76062 45.609795 97.803558
255.52933 44.496532 98.215271
266.5304 44.260792 98.179802
275.15182 44.677143 97.799278
286.01758 44.61541 98.00013
296.83426 44.377941 95.551239
301.54953 44.316265 95.433105
197.38593 55.083889 93.979752
203.34294 54.857807 96.976662
214.91714 54.950771 97.926758
224.90714 55.411243 97.986275
235.37155 54.752007 97.706734
245.58711 54.587555 97.89521
255.24409 54.491657 98.206345
266.76099 54.997589 97.897102
275.1044 54.955753 97.78286
285.95401 54.565166 98.097466
296.84991 54.80999 95.682594
301.28729 54.80925 95.213257
197.62572 65.083412 94.454529
203.02327 64.513878 96.650955
214.31274 64.98349 97.813362
225.13072 66.073311 97.933014
235.44504 65.557259 97.922783
246.02893 64.094612 97.456116
255.5666 63.772617 98.082832
267.01291 65.03463 97.959587
274.64307 64.89045 97.879791
286.42682 65.027847 97.865295
296.9234 65.265366 95.665756
301.21414 65.224236 95.710945
197.41191 74.422577 94.014374
203.20419 73.837669 97.12664
214.14954 74.953133 97.923637
224.9785 74.606834 97.835251
235.35368 74.31366 97.763031
246.1059 74.374954 97.675568
255.97452 73.35257 98.03331
266.57971 74.554497 98.035385
274.66458 74.394447 97.738388
285.70618 74.977562 97.887932
296.53128 75.078415 95.611298
301.37064 77.128052 95.259674
197.39206 85.439262 94.290863
203.3848 85.065903 97.381523
214.21735 85.141609 98.329735
224.84485 85.002739 97.927414
235.85136 85.210114 97.919228
245.17072 85.489349 97.96212
255.37024 85.377167 98.32164
265.94409 84.722893 98.453369
274.72742 85.150368 97.881012
285.85855 85.53891 98.115814
297.18536 85.326057 95.540527
301.51892 85.691849 94.540741
197.40318 95.741417 94.458061
203.36201 95.743645 96.879135
214.21501 95.790657 97.847115
224.94908 95.392113 97.58535
235.50581 95.447281 97.78347
245.72789 95.719734 97.717293
255.02451 96.326469 98.031517
266.30978 95.458626 97.786476
